0, 0, 0, 0.0316228, 0.0316228, 0.0316228
0.00795333, 0.000658272, 0.00300462, 0.141173, 0.141173, 0.076571
0.00328917, 0.021552, 0.00444506, 0.164666, 0.164431, 0.0889031
-0.00301629, 0.0372974, 0.133377, 0.184377, 0.182706, 0.101781
-0.000834862, 0.00771578, 0.285311, 0.194905, 0.192277, 0.11427
0.0052124, -0.0297173, 0.376771, 0.196877, 0.193793, 0.125638
-0.0135174, -0.0393593, 0.489435, 0.197106, 0.193209, 0.135474
-0.0459646, -0.0253465, 0.598078, 0.19418, 0.193243, 0.14174
-0.03077, -0.0246112, 0.603466, 0.194811, 0.194111, 0.146821
0.00117459, -0.00956579, 0.569963, 0.199639, 0.198157, 0.150823
0.00393447, -0.000660794, 0.559201, 0.207776, 0.205701, 0.153528
-0.00648321, 0.0182921, 0.524868, 0.215105, 0.212519, 0.155744
-0.0335135, 0.0272445, 0.484532, 0.219459, 0.215191, 0.158696
-0.036484, 0.0190675, 0.438975, 0.225571, 0.21333, 0.165312
-0.0102238, 0.00951253, 0.371453, 0.233277, 0.209606, 0.174734
0.00727458, 0.0350584, 0.261082, 0.238673, 0.205153, 0.183921
0.0132352, 0.0542735, 0.0753813, 0.239689, 0.199363, 0.19139
0.0298034, 0.0624559, -0.0451341, 0.237955, 0.195428, 0.195556
0.0646813, 0.0514169, -0.114968, 0.229017, 0.193838, 0.192776
0.0807466, 0.0315679, -0.129012, 0.213577, 0.193556, 0.182531
0.0670293, 0.0277832, -0.111365, 0.200761, 0.193571, 0.17154
0.0397767, 0.0465389, -0.0541025, 0.197272, 0.194806, 0.166633
0.0283861, 0.0635119, 0.0180815, 0.198958, 0.198106, 0.168396
0.00655883, 0.0870317, 0.047853, 0.199952, 0.205084, 0.177605
-0.0109451, 0.0990626, 0.0306372, 0.199061, 0.219907, 0.194551
-0.0288872, 0.0990957, 0.00641563, 0.197455, 0.242901, 0.215826
-0.0389998, 0.0804697, -0.0321138, 0.195763, 0.270465, 0.239287
-0.0234021, 0.0631002, -0.0622957, 0.195516, 0.300486, 0.263882
-0.00315414, 0.0690643, -0.0796873, 0.197022, 0.329747, 0.287939
0.0083871, 0.0626082, -0.0815967, 0.197674, 0.353924, 0.309252
0.0137574, 0.0513283, -0.0905289, 0.196845, 0.367842, 0.32465
0.0155039, 0.0266012, -0.0978921, 0.196072, 0.370239, 0.332322
-0.0105952, -0.00370256, -0.0941119, 0.196214, 0.360236, 0.331311
-0.047507, -0.00467899, -0.0828422, 0.195346, 0.340329, 0.320239
-0.0484863, -0.0289788, -0.0683649, 0.194681, 0.315077, 0.302034
-0.0478359, -0.047756, -0.0635924, 0.193995, 0.286353, 0.279204
-0.0412901, -0.0600543, -0.0646526, 0.193374, 0.255879, 0.253893
-0.0289667, -0.0597615, -0.0509026, 0.192961, 0.227956, 0.229324
-0.0212686, -0.0534977, -0.0376925, 0.192608, 0.205568, 0.209153
-0.01963, -0.0444067, -0.0304104, 0.192177, 0.189793, 0.19476
-0.0126892, -0.0315258, -0.0320006, 0.191583, 0.18029, 0.18583
-0.00680046, -0.0279653, -0.0235112, 0.191688, 0.176332, 0.181633
-0.00416677, -0.0288303, -0.0165046, 0.191974, 0.176537, 0.180911
0.0040781, -0.0248973, -0.00709751, 0.191905, 0.179654, 0.182378
0.00368545, -0.0229259, 0.000433582, 0.191794, 0.185109, 0.185812
0.00316436, -0.0269993, 0.00615843, 0.192007, 0.192705, 0.191313
0.0280711, -0.0216032, 0.0153351, 0.191807, 0.202997, 0.19935
0.0431676, -0.0108417, 0.0346054, 0.191819, 0.216566, 0.210467
0.0232707, -0.0134641, 0.0560427, 0.192341, 0.231867, 0.22336
0.00118384, -0.0149058, 0.0841541, 0.192954, 0.247005, 0.236538
-0.0059708, -0.036326, 0.0924801, 0.194238, 0.26043, 0.249922
-0.00999626, -0.0600135, 0.0766348, 0.194701, 0.271702, 0.262586
-0.0100217, -0.0577005, 0.0532177, 0.192705, 0.280576, 0.273361
0.00913646, -0.0604015, 0.0300923, 0.189686, 0.286265, 0.281903
0.027416, -0.0638138, -0.0283342, 0.18502, 0.287747, 0.287747
0.0181683, -0.0658844, -0.104191, 0.179034, 0.285168, 0.291051
0.00980812, -0.0412169, -0.158652, 0.173514, 0.28058, 0.292852
0.0149387, -0.0305934, -0.155574, 0.17059, 0.274917, 0.292451
0.0193584, -0.00757408, -0.151434, 0.169502, 0.268186, 0.289946
0.0181551, 0.000284468, -0.155228, 0.170014, 0.260744, 0.28633
0.01876, -0.0109517, -0.167478, 0.171113, 0.253593, 0.283223
0.00049625, -0.020217, -0.150643, 0.173133, 0.245931, 0.279561
-0.0135221, -0.026698, -0.105488, 0.176037, 0.236498, 0.272869
-0.0191385, -0.0379723, -0.0597944, 0.178799, 0.2253, 0.26245
-0.016901, -0.036534, -0.0131492, 0.181699, 0.213529, 0.250229
-0.0175436, -0.0301638, -0.00361235, 0.183688, 0.202172, 0.23777
-0.0222971, -0.0223542, -0.0187871, 0.18461, 0.191876, 0.225661
-0.0101984, -0.0102081, -0.0239114, 0.185188, 0.183863, 0.214747
0.00380778, 0.0014659, -0.020196, 0.185299, 0.178678, 0.205729
0.00581655, 0.00623345, -0.00509052, 0.184785, 0.176106, 0.198803
-0.00378765, 0.0038932, 0.0250241, 0.184091, 0.175882, 0.194056
-0.0139165, -0.00719367, 0.0750847, 0.183215, 0.178136, 0.191531
-0.0199497, -0.0134828, 0.141663, 0.182786, 0.183388, 0.192009
-0.0311798, -0.0176694, 0.205327, 0.182503, 0.192004, 0.196096
-0.0406855, -0.0188456, 0.270383, 0.182588, 0.20376, 0.203641
-0.0559645, 0.0108581, 0.294938, 0.183089, 0.217228, 0.213881
-0.0559287, 0.0382354, 0.267866, 0.182571, 0.231198, 0.225439
-0.0443522, 0.0792463, 0.212187, 0.182196, 0.244072, 0.236777
-0.0227585, 0.108974, 0.138704, 0.18112, 0.25388, 0.246007
0.00838462, 0.114286, 0.0771476, 0.17938, 0.259287, 0.251933
0.0339431, 0.116265, 0.030733, 0.177945, 0.259592, 0.253849
0.037799, 0.0960599, 0.00338105, 0.176422, 0.255377, 0.25175
0.0302502, 0.104637, 0.00299015, 0.176154, 0.248299, 0.246932
0.0132213, 0.11049, 0.00444936, 0.175855, 0.239552, 0.240805
0.00778049, 0.0971613, -0.00648787, 0.175239, 0.230555, 0.234837
0.000249402, 0.0975717, -0.0199338, 0.175207, 0.222202, 0.229576
-0.00278273, 0.0675712, -0.0135492, 0.175431, 0.214442, 0.225364
-0.0157635, 0.0345489, -0.0126343, 0.175668, 0.207094, 0.221782
-0.0470782, 0.0313859, -0.0334399, 0.175394, 0.200682, 0.218688
-0.0509059, 0.0192635, -0.0421432, 0.175445, 0.195351, 0.216303
-0.0345538, 0.000623652, -0.035737, 0.175889, 0.190098, 0.213529
-0.0107007, -0.0370209, -0.0419077, 0.176197, 0.18456, 0.209796
0.0144999, -0.0488879, -0.0650442, 0.175879, 0.179667, 0.205215
0.00996162, -0.0192192, -0.0519233, 0.175321, 0.175905, 0.200883
-0.00235517, -0.00502329, -0.0166999, 0.17553, 0.173553, 0.1968
-0.00185686, -0.020389, 0.00226407, 0.17626, 0.17251, 0.192565
0.0131291, -0.0436699, 0.0184207, 0.177444, 0.173068, 0.189263
0.045451, -0.0648119, 0.0109999, 0.178401, 0.175533, 0.18822
0.0449958, -0.0683559, 0.0042677, 0.179081, 0.180639, 0.19037
0.0386191, -0.0906987, -0.0149799, 0.180993, 0.188385, 0.19604
0.0394421, -0.107138, -0.0385016, 0.182616, 0.197951, 0.203611
0.0402483, -0.106208, -0.0567963, 0.182847, 0.20803, 0.211444
0.0335695, -0.0900298, -0.0945167, 0.181232, 0.217214, 0.218395
0.0281006, -0.0636336, -0.132421, 0.178271, 0.224615, 0.224102
0.0258531, -0.0476175, -0.164152, 0.175202, 0.229411, 0.228209
0.0210046, -0.0329692, -0.184601, 0.17183, 0.231591, 0.230229
0.00370739, -0.020813, -0.181351, 0.168823, 0.232222, 0.230048
-0.018678, -0.00111978, -0.156081, 0.166508, 0.231362, 0.227594
-0.0251945, 0.00989104, -0.129958, 0.165583, 0.227589, 0.223382
-0.022417, 0.00559512, -0.120574, 0.165675, 0.221112, 0.218912
-0.0209006, -0.00728803, -0.122689, 0.166321, 0.213202, 0.215556
-0.0292646, -0.0324668, -0.121644, 0.16721, 0.204935, 0.213434
-0.031958, -0.0533715, -0.094479, 0.168648, 0.197179, 0.211804
-0.0187744, -0.0592819, -0.0729849, 0.170393, 0.190655, 0.209679
-0.0114212, -0.0526056, -0.043316, 0.172539, 0.185186, 0.206536
0.00940583, -0.033762, 0.00310593, 0.175074, 0.180857, 0.202261
0.00540961, -0.0139307, 0.0568935, 0.177211, 0.17747, 0.197737
-0.00603376, -0.00440847, 0.108686, 0.178286, 0.175448, 0.19402
-0.00141129, 0.00342394, 0.167234, 0.1788, 0.175419, 0.191708
0.000421959, 0.0137595, 0.204642, 0.178479, 0.17759, 0.191383
-0.00620419, 0.024663, 0.204631, 0.177109, 0.181762, 0.193293
-0.0296993, 0.0560193, 0.191643, 0.176391, 0.18743, 0.197062
-0.0419861, 0.0601258, 0.162573, 0.174681, 0.193617, 0.201095
-0.0460092, 0.0733951, 0.109649, 0.173109, 0.198891, 0.204008
-0.0308439, 0.0556248, 0.0388882, 0.170728, 0.201515, 0.203791
-0.0155242, 0.0315146, -0.00492544, 0.169154, 0.200815, 0.200447
-0.00592206, 0.0175336, -0.0297302, 0.168317, 0.19713, 0.195364
0.00533074, 0.0112215, -0.0447958, 0.16791, 0.191563, 0.189797
0.0132505, 0.00867079, -0.0328204, 0.168053, 0.18541, 0.184426
0.0130694, -0.000216318, -0.013412, 0.168318, 0.179567, 0.179813
0.00574048, -0.00679848, 0.0027206, 0.168596, 0.174625, 0.176286
0.00130281, -0.00930146, 0.0200082, 0.169013, 0.170875, 0.173913
0.00226551, -0.0155436, 0.0256135, 0.169172, 0.168266, 0.172581
-0.0114746, -0.0177566, 0.0203732, 0.169205, 0.167117, 0.171798
-0.0386674, -0.0119803, 0.00753936, 0.169402, 0.169134, 0.17119
-0.0700953, -0.00446193, -0.00864414, 0.17033, 0.176758, 0.17067
-0.106319, 0.0234926, -0.0169751, 0.173173, 0.191236, 0.170026
-0.0970612, 0.0140531, -0.00373649, 0.178707, 0.210893, 0.169419
-0.0927772, 0.0187295, 0.0127911, 0.187996, 0.234522, 0.168986
-0.086879, 0.0265873, 0.0146279, 0.200665, 0.259318, 0.168664
-0.0826704, 0.0284196, 0.0137445, 0.216026, 0.281682, 0.168282
-0.0757102, 0.0266716, -0.0103748, 0.232338, 0.298147, 0.168014
-0.0808953, 0.0217852, -0.0498456, 0.24718, 0.305143, 0.168481
-0.0745478, 0.0123776, -0.0665173, 0.259741, 0.301483, 0.169312
-0.0684145, 0.00289087, -0.0834356, 0.267642, 0.289919, 0.169652
-0.0575219, -0.0364677, -0.0940091, 0.268724, 0.272836, 0.16896
-0.0492888, -0.0458251, -0.0815557, 0.262521, 0.253391, 0.167329
-0.0475395, -0.0286139, -0.0612017, 0.251176, 0.235655, 0.165933
-0.0328165, -0.0291086, -0.045618, 0.236007, 0.221334, 0.165255
-0.0262682, -0.0127848, -0.024517, 0.219758, 0.210627, 0.164922
-0.00750899, -0.00586639, -0.000829253, 0.20453, 0.202933, 0.164783
0.00664258, 0.00143847, 0.00465561, 0.191755, 0.197236, 0.164654
0.0162384, -0.00495098, -0.00936644, 0.182196, 0.192718, 0.164545
0.0275979, -0.0221958, -0.0240881, 0.176576, 0.188969, 0.164471
0.0381081, -0.0335838, -0.033537, 0.175329, 0.186109, 0.164472
0.0312776, -0.00834343, -0.013769, 0.178269, 0.184409, 0.164412
0.0532769, -0.0329931, 0.0232027, 0.185289, 0.185258, 0.164471
0.0901829, -0.0536741, 0.0356401, 0.195002, 0.189246, 0.164728
0.126046, -0.0356421, 0.0260806, 0.204851, 0.196401, 0.165113
0.139232, -0.000985387, -0.00413335, 0.213292, 0.205807, 0.165395
0.148774, 0.0392475, -0.04059, 0.219143, 0.217491, 0.165546
0.151815, 0.0805373, -0.0632876, 0.221557, 0.230342, 0.165598
0.172969, 0.0862854, -0.0473469, 0.220482, 0.244001, 0.165532
0.207079, 0.0856953, -0.0251179, 0.215963, 0.256599, 0.165424
0.214831, 0.0708544, 0.00345383, 0.209558, 0.265605, 0.165259
0.182826, 0.0573287, 0.00833839, 0.202683, 0.268762, 0.165024
0.129891, 0.0410934, -0.00827209, 0.197424, 0.266555, 0.164775
0.0795521, 0.041161, -0.0208191, 0.194675, 0.260741, 0.164552
0.0603332, 0.0344878, -0.0321099, 0.194968, 0.252775, 0.164339
0.0208153, 0.0233902, -0.0501546, 0.197468, 0.242675, 0.164195
-0.0124349, 0.0301077, -0.0397723, 0.200924, 0.232272, 0.164102
-0.019307, 0.0424166, -0.016228, 0.204461, 0.222499, 0.164029
0.0094768, 0.0476422, 0.00117194, 0.206688, 0.213915, 0.163985
0.0198929, 0.0495897, 0.00529849, 0.20626, 0.206238, 0.163982
-0.00128239, 0.0269058, -0.0109676, 0.202762, 0.199429, 0.164009
-0.0461981, 0.00779976, -0.0145286, 0.197415, 0.194298, 0.16401
-0.0700719, -0.000767324, 0.0110297, 0.191343, 0.191258, 0.163988
-0.0782791, -0.0047304, 0.0316645, 0.185484, 0.189737, 0.163984
-0.0934591, -0.00768234, 0.0452018, 0.180868, 0.189793, 0.164003
-0.121184, -0.0332212, 0.053433, 0.178404, 0.191643, 0.164042
-0.13854, -0.0387612, 0.0512512, 0.177946, 0.195241, 0.164063
-0.151707, -0.0321017, 0.0541585, 0.179269, 0.200915, 0.164121
-0.152023, -0.0307163, 0.0626516, 0.182089, 0.2085, 0.164227
-0.129829, -0.050043, 0.0600419, 0.185572, 0.216801, 0.164286
-0.12027, -0.0577657, 0.0560283, 0.188619, 0.224952, 0.164337
-0.125287, -0.0425622, 0.0580195, 0.190929, 0.231357, 0.1644
-0.114566, -0.00526578, 0.0434459, 0.192904, 0.234041, 0.164473
-0.080702, 0.0189416, 0.0149942, 0.194642, 0.232582, 0.164631
-0.056097, 0.0396178, -0.0184694, 0.19629, 0.227913, 0.16493
-0.0565717, 0.0364057, -0.0310865, 0.197136, 0.221114, 0.165246
-0.0561805, 0.0140409, -0.0399554, 0.19712, 0.213003, 0.165423
-0.045881, -0.00575448, -0.0682275, 0.196966, 0.204714, 0.165319
-0.0432364, -0.0201397, -0.0964612, 0.196546, 0.197403, 0.165022
-0.0594148, -0.0300608, -0.109531, 0.195493, 0.191795, 0.16474
-0.0636401, -0.0195228, -0.0963647, 0.1942, 0.18773, 0.164567
-0.0518771, -0.00981221, -0.0688885, 0.192028, 0.185222, 0.164513
-0.0252262, -0.000675612, -0.0230486, 0.189119, 0.18419, 0.164505
0.000778468, 0.00134178, 0.0130033, 0.185575, 0.18425, 0.164495
0.0127563, -0.00422482, 0.0340974, 0.181891, 0.184527, 0.164395
0.039511, -0.0310554, 0.0422869, 0.178639, 0.185349, 0.164253
0.0549351, -0.0509083, 0.0350993, 0.177444, 0.186506, 0.164143
0.0627584, -0.0434257, 0.0352959, 0.178473, 0.188479, 0.164174
0.0869345, 0.017119, 0.00443891, 0.180982, 0.192231, 0.164408
0.125095, 0.0714566, -0.0332328, 0.184463, 0.19783, 0.164752
0.141963, 0.0839106, -0.0561162, 0.187606, 0.20344, 0.165087
0.145157, 0.0696833, -0.0341547, 0.190339, 0.208729, 0.165344
0.128247, 0.0399701, -0.00091308, 0.192506, 0.212641, 0.16537
0.158305, 0.0130556, 0.0234504, 0.193475, 0.217879, 0.165313
0.224856, 0.0238101, 0.020483, 0.19185, 0.223599, 0.165306
0.244388, 0.0412358, 0.0217299, 0.189283, 0.223487, 0.165265
0.196196, 0.0493641, 0.00348645, 0.187004, 0.21623, 0.165098
0.144016, 0.0368392, -0.000753422, 0.185855, 0.208719, 0.164844
0.0964891, 0.0156968, 0.00228683, 0.185764, 0.20226, 0.16451
0.0869167, 0.000567624, 0.000612865, 0.186403, 0.198053, 0.164201
0.0978273, 0.0235422, 0.00512598, 0.186817, 0.195161, 0.164055
0.0460455, 0.0161595, 0.00971282, 0.188041, 0.190746, 0.164081
0.0270564, 0.0068725, -0.00930414, 0.188817, 0.188521, 0.164125
0.0101148, 0.0153075, -0.0367304, 0.188513, 0.187091, 0.16415
-0.00685487, -0.00348012, -0.0452925, 0.187128, 0.186104, 0.164116
-0.0210037, -0.0227363, -0.0212159, 0.184839, 0.185444, 0.16406
-0.0481628, -0.0416732, 0.0166301, 0.182209, 0.184905, 0.16404
-0.0720526, -0.0199447, 0.0268026, 0.179456, 0.184614, 0.164029
-0.0858442, 0.00482056, 0.0366407, 0.177443, 0.184654, 0.164029
-0.0998057, 0.0256487, 0.042961, 0.176424, 0.185343, 0.16403
-0.0973441, 0.0106515, 0.0452933, 0.176213, 0.186557, 0.164068
-0.110857, -0.00431482, 0.0412828, 0.177132, 0.188973, 0.164136
-0.118175, -0.0088999, 0.0207787, 0.178722, 0.192062, 0.164201
-0.10683, 0.0167686, 0.0129116, 0.180845, 0.195667, 0.164249
-0.0944765, 0.0314443, 0.0206625, 0.183226, 0.199712, 0.164323
-0.0866325, 0.0252394, 0.0101038, 0.184929, 0.203301, 0.164432
-0.0953223, 0.0271542, 0.00108213, 0.185989, 0.206057, 0.164496
-0.0841413, 0.0310671, -0.00115707, 0.1865, 0.205943, 0.16449
-0.100952, 0.0529216, -0.00273922, 0.187324, 0.204951, 0.164581
-0.0924546, 0.0683515, -0.0142587, 0.188101, 0.201063, 0.164768
-0.0816451, 0.0649754, -0.0258004, 0.188206, 0.196278, 0.164961
-0.0702063, 0.0686194, -0.0452013, 0.188927, 0.191509, 0.165037
-0.0614725, 0.039344, -0.0722611, 0.187896, 0.187465, 0.164844
-0.0695361, 0.00864181, -0.105409, 0.186726, 0.184897, 0.164532
-0.0575082, -0.0116209, -0.099467, 0.185774, 0.182718, 0.164226
-0.0308498, -0.0154198, -0.0571612, 0.184987, 0.181592, 0.164054
-0.00960083, -0.0228368, -0.0254798, 0.183577, 0.181654, 0.164025
-0.00854647, -0.0441113, 0.00958076, 0.181363, 0.18211, 0.164032
0.00622764, -0.0447882, 0.0411975, 0.179661, 0.182688, 0.164064
0.0240958, -0.0516541, 0.0446147, 0.178232, 0.183474, 0.164063
0.0402189, -0.0759926, 0.0462551, 0.177934, 0.184752, 0.164059
0.0734828, -0.0903748, 0.0353429, 0.179314, 0.187634, 0.164186
0.0875948, -0.0681313, 0.0085933, 0.181044, 0.190874, 0.164419
0.0867181, -0.0235543, -0.0166299, 0.182669, 0.193886, 0.164667
0.0646183, 0.0217941, -0.0367189, 0.183962, 0.195429, 0.164846
0.0131577, 0.0602391, -0.058084, 0.184321, 0.194531, 0.164858
-0.0160522, 0.0796224, -0.0510018, 0.183539, 0.193156, 0.164792
-0.028518, 0.0842158, -0.0292661, 0.181796, 0.190879, 0.164619
0.00951285, 0.0655817, 0.00375254, 0.179682, 0.189687, 0.16447
0.051071, 0.0387612, 0.0311897, 0.177927, 0.188584, 0.164339
0.0600252, 0.0201228, 0.0406458, 0.176393, 0.184913, 0.164203
0.0681552, 0.0129062, 0.0184865, 0.174776, 0.181115, 0.164096
0.086122, 0.0172954, -0.013261, 0.173136, 0.178423, 0.164085
0.104312, 0.0194491, -0.0453851, 0.172195, 0.176333, 0.16432
0.101742, 0.0203385, -0.0678303, 0.172082, 0.173746, 0.164814
0.0969871, 0.0140825, -0.0830707, 0.172943, 0.171888, 0.165537
0.0814973, 0.0057965, -0.107079, 0.174484, 0.170583, 0.166444
0.0563562, -0.00902986, -0.115873, 0.176442, 0.170133, 0.167418
0.0465993, -0.0238417, -0.113477, 0.178313, 0.170191, 0.168469
0.0281721, -0.0218977, -0.096584, 0.179071, 0.170711, 0.169456
0.0105096, -0.019102, -0.0868758, 0.179082, 0.171512, 0.170352
-0.00749756, -0.0103051, -0.0796579, 0.178476, 0.172313, 0.17124
-0.0233333, -0.0191686, -0.047888, 0.176955, 0.172731, 0.171699
-0.0179796, -0.0194796, -0.0182407, 0.174573, 0.171571, 0.171736
-0.0133476, -0.00484517, 0.0265972, 0.171934, 0.170341, 0.171528
-0.0236873, 0.00204615, 0.0801173, 0.169238, 0.169865, 0.171099
-0.0314483, 0.000279644, 0.113328, 0.166873, 0.169185, 0.170815
-0.0352168, -0.000817372, 0.115629, 0.166135, 0.168179, 0.171441
-0.0375104, -0.00680307, 0.100231, 0.167363, 0.167249, 0.173269
-0.0179738, -0.0136615, 0.0774864, 0.170283, 0.16561, 0.175761
-0.0103084, -0.0261244, 0.0349686, 0.173993, 0.164829, 0.178454
-0.0299978, -0.0258562, -0.00394325, 0.177927, 0.164922, 0.180761
-0.0520121, -0.0271486, -0.0267271, 0.181529, 0.165112, 0.18264
-0.0516978, -0.0295074, -0.0493759, 0.183965, 0.164684, 0.183308
-0.0501873, -0.0206232, -0.044412, 0.185199, 0.164298, 0.183101
-0.057342, -0.00821011, -0.0233215, 0.185167, 0.164163, 0.182374
-0.0542075, -0.00244855, 0.00129769, 0.183945, 0.163973, 0.181372
-0.038613, 0.00513001, 0.0165087, 0.181757, 0.163968, 0.180294
-0.022352, 0.0147497, 0.013393, 0.178797, 0.164304, 0.17922
-0.0198554, 0.0251711, 0.0138585, 0.175544, 0.164535, 0.178302
-0.00424354, 0.0261158, 0.0363623, 0.17221, 0.165069, 0.177681
0.0233963, 0.0140075, 0.0682142, 0.169238, 0.166127, 0.177659
0.0195336, 0.00579677, 0.0862461, 0.167306, 0.165805, 0.178121
0.0136087, 0.00166984, 0.0874773, 0.166721, 0.165325, 0.179068
0.0358795, -0.00647974, 0.0715215, 0.167482, 0.165799, 0.180654
0.039257, -0.0152005, 0.0453122, 0.169336, 0.165441, 0.181983
0.0390056, -0.0109423, 0.0346191, 0.171609, 0.164947, 0.182315
0.0493734, -0.00237869, 0.0189985, 0.174136, 0.164787, 0.18239
0.0320782, -0.00239075, -0.016266, 0.176223, 0.1641, 0.181383
0.0191495, -0.00106049, -0.0590295, 0.177668, 0.163878, 0.179983
0.0324109, 0.000198096, -0.102381, 0.178488, 0.163865, 0.178688
0.0438433, -0.00594086, -0.139546, 0.178875, 0.163858, 0.177665
0.0288716, -0.00610876, -0.160877, 0.178681, 0.164034, 0.176845
0.013252, -0.0110996, -0.162704, 0.177964, 0.164604, 0.176378
0.00356535, -0.0129195, -0.155958, 0.17681, 0.165278, 0.176343
-0.00710475, -0.00660657, -0.137231, 0.175167, 0.1661, 0.176636
-0.0110934, -0.00392627, -0.0929021, 0.173295, 0.166649, 0.177144
-0.0115801, -0.00421621, -0.0413471, 0.17144, 0.166912, 0.177743
-0.0205834, -0.00336354, 0.028506, 0.169763, 0.167473, 0.17832
-0.0354591, -0.00357499, 0.105039, 0.168293, 0.16828, 0.178759
-0.0411619, 0.000564818, 0.147905, 0.167297, 0.168259, 0.17908
-0.0459541, 0.00880028, 0.161039, 0.167228, 0.167917, 0.179594
-0.0482357, 0.00154792, 0.156371, 0.167969, 0.167269, 0.180448
-0.0396753, -0.00552779, 0.138479, 0.169607, 0.166187, 0.181277
-0.0388202, -0.00730898, 0.121998, 0.171983, 0.16556, 0.182144
-0.0455275, -0.0105558, 0.09187, 0.174584, 0.165283, 0.18285
-0.0420129, -0.0176448, 0.062629, 0.176921, 0.164772, 0.182734
-0.0435739, -0.021138, 0.0383509, 0.178818, 0.164512, 0.182031
-0.0639919, -0.0354375, 0.0114405, 0.180058, 0.164652, 0.181034
-0.0794084, -0.0352805, -0.0213762, 0.180573, 0.16461, 0.179988
-0.0462494, -0.0264316, -0.0398421, 0.180143, 0.164083, 0.178938
0.00316524, -0.0178101, -0.0517684, 0.178773, 0.164803, 0.178374
0.000594632, -0.0083369, -0.0718284, 0.176899, 0.164762, 0.178641
-0.0447079, -0.00040568, -0.0564886, 0.175122, 0.163906, 0.179545
-0.0356982, 0.00307245, -0.00853954, 0.173491, 0.163983, 0.181072
-0.00645327, 0.0105334, 0.036807, 0.171863, 0.164607, 0.182652
0.00247101, 0.015264, 0.0714789, 0.170379, 0.164865, 0.183729
0.0328647, -0.00392417, 0.0807438, 0.168874, 0.165939, 0.18479
0.0286028, -0.00294298, 0.0510255, 0.168057, 0.165598, 0.185334
0.0301983, 0.00189798, -0.00658448, 0.168053, 0.165341, 0.185924
0.0367407, -0.000299231, -0.0621311, 0.16885, 0.16522, 0.186556
0.0324969, -0.00284999, -0.114634, 0.170173, 0.164747, 0.186187
0.00912232, -0.0029134, -0.126366, 0.171602, 0.164073, 0.183996
-0.00410879, -0.00236772, -0.108524, 0.172714, 0.163902, 0.18079
-0.0127854, -0.00697021, -0.0726442, 0.173045, 0.163892, 0.177054
-0.00973556, -0.00907024, -0.0442912, 0.172542, 0.163917, 0.173627
0.00194386, -0.0110836, 0.0188542, 0.171561, 0.164008, 0.171045
0.00578379, -0.0217084, 0.14125, 0.170413, 0.164106, 0.169378
0.00671944, -0.0428568, 0.285117, 0.169354, 0.164209, 0.168523
-0.0024111, -0.0500897, 0.404069, 0.168264, 0.164254, 0.168207
-0.0219383, -0.0490886, 0.486152, 0.167226, 0.16445, 0.168232
-0.0217665, -0.0524331, 0.514012, 0.166383, 0.164487, 0.168291
-0.0203889, -0.0493678, 0.504424, 0.165839, 0.164608, 0.168312
-0.0148943, -0.0598649, 0.477807, 0.1657, 0.16484, 0.168225
-0.0231397, -0.0620084, 0.444654, 0.165827, 0.16535, 0.168166
-0.0431143, -0.0680035, 0.366839, 0.166209, 0.16608, 0.168028
-0.0437122, -0.0643105, 0.220519, 0.166652, 0.166456, 0.167696
-0.0335662, -0.0484659, 0.0439049, 0.167021, 0.166593, 0.167183
-0.00875675, -0.0376092, -0.131397, 0.167161, 0.166662, 0.166514
0.0262402, -0.0331794, -0.255925, 0.166763, 0.166959, 0.16571
0.0251947, 0.00433334, -0.35256, 0.16633, 0.166184, 0.165012
0.00324003, 0.032228, -0.423979, 0.165944, 0.164899, 0.164456
-0.00539877, 0.0422569, -0.450519, 0.165215, 0.164196, 0.164076
-0.0140334, 0.0626426, -0.463193, 0.165166, 0.163963, 0.163882
-0.0154988, 0.0773795, -0.473213, 0.165351, 0.164259, 0.16381
-0.00855711, 0.0741495, -0.47251, 0.165419, 0.16501, 0.163811
-0.030956, 0.0653221, -0.465328, 0.165869, 0.165774, 0.163838
-0.0425744, 0.0605183, -0.466961, 0.16669, 0.166728, 0.163886
-0.0454322, 0.0538628, -0.461718, 0.167594, 0.167612, 0.163929
-0.0469052, 0.041186, -0.415296, 0.168547, 0.16839, 0.16394
-0.0272287, 0.0336608, -0.346238, 0.169277, 0.169063, 0.163923
-0.0172222, 0.041235, -0.274136, 0.169375, 0.169432, 0.163879
-0.0147474, 0.0412883, -0.200712, 0.169236, 0.169334, 0.163835
-0.0154881, 0.0415341, -0.126427, 0.168752, 0.168853, 0.163818
-0.0124661, 0.0307349, -0.0337315, 0.168147, 0.168174, 0.163817
0.00543218, 0.00665208, 0.0924188, 0.167682, 0.167583, 0.163825
0.0246111, -0.00468939, 0.24512, 0.166914, 0.167025, 0.163835
0.0400004, -0.0114225, 0.382661, 0.166051, 0.166378, 0.163834
0.0399384, -0.0167976, 0.49506, 0.165328, 0.165481, 0.163812
0.039695, -0.0278888, 0.570521, 0.165004, 0.1649, 0.163787
0.0491949, -0.0369667, 0.610303, 0.165071, 0.164879, 0.163781
0.0413952, -0.0313012, 0.624122, 0.165394, 0.165251, 0.163781
0.0365559, -0.0223307, 0.595921, 0.166166, 0.166129, 0.163801
0.0310371, -0.0252807, 0.537697, 0.167223, 0.16735, 0.163815
0.0351588, -0.0358403, 0.490789, 0.168327, 0.168499, 0.163839
0.0501201, -0.0534924, 0.451665, 0.169358, 0.169365, 0.163861
0.0481705, -0.063456, 0.385177, 0.170081, 0.170086, 0.163884
0.0215942, -0.0534877, 0.273783, 0.170212, 0.170805, 0.163912
0.00524338, -0.0341717, 0.120907, 0.170004, 0.171027, 0.163914
-0.0159109, -0.00336471, -0.052347, 0.16971, 0.170881, 0.163913
-0.0250282, 0.018446, -0.224024, 0.169023, 0.169728, 0.163868
-0.0103067, 0.0270077, -0.348453, 0.167623, 0.167486, 0.163787
0.0150842, 0.0465836, -0.445876, 0.166545, 0.165758, 0.163728
0.0301416, 0.0596668, -0.503606, 0.165515, 0.164891, 0.163705
0.037981, 0.0721557, -0.541104, 0.164982, 0.1646, 0.163692
0.0150177, 0.0960745, -0.571167, 0.165483, 0.164316, 0.163684
-0.00502531, 0.0920566, -0.561488, 0.165542, 0.16484, 0.163704
-0.0172369, 0.0703824, -0.532406, 0.165998, 0.165967, 0.163747
-0.0215633, 0.0555773, -0.483058, 0.167282, 0.167329, 0.163797
-0.0270102, 0.0413384, -0.424419, 0.168788, 0.168675, 0.163845
-0.0400338, 0.0183713, -0.388046, 0.170286, 0.169741, 0.163883
-0.0389928, -0.00205984, -0.373082, 0.171349, 0.170154, 0.163876
-0.0420591, 0.00452102, -0.33013, 0.170987, 0.170294, 0.163839
-0.0311718, 0.0100224, -0.261888, 0.170399, 0.170069, 0.163797
-0.0201512, 0.00464437, -0.177403, 0.169789, 0.169627, 0.163768
-0.00953157, -0.00096325, -0.0651293, 0.168949, 0.169, 0.163737
0.00191301, -0.00465563, 0.0640072, 0.167968, 0.168248, 0.163716
0.0158154, 0.00337906, 0.224475, 0.167063, 0.167546, 0.16371
0.0418973, 0.0108939, 0.401453, 0.166459, 0.167215, 0.163729
0.0607924, 0.00802338, 0.525729, 0.165773, 0.166712, 0.163736
0.0816011, -0.0076892, 0.601747, 0.165113, 0.166379, 0.163743
0.0554779, -0.00626808, 0.652306, 0.16508, 0.16509, 0.163739
0.00375522, 0.00499568, 0.675315, 0.165629, 0.165981, 0.163776
-0.026109, -0.00140456, 0.646458, 0.166209, 0.16809, 0.16387
-0.0333957, -0.0119873, 0.602675, 0.167006, 0.169282, 0.163921
-0.0161938, -0.0468997, 0.565652, 0.168426, 0.169252, 0.163889
-0.0127482, -0.0665658, 0.532011, 0.170025, 0.169895, 0.163853
-0.0295901, -0.0537753, 0.489999, 0.170368, 0.170903, 0.163855
-0.0342289, -0.0297278, 0.392012, 0.170454, 0.17118, 0.163874
-0.0296783, -0.00983162, 0.226592, 0.170616, 0.171004, 0.163915
-0.00959336, 0.00951971, 0.0145229, 0.170531, 0.170684, 0.164043
0.0254307, 0.0170673, -0.186086, 0.169766, 0.170793, 0.164229
0.0508263, 0.0252296, -0.334522, 0.168383, 0.170646, 0.164418
0.0567376, 0.0328395, -0.454359, 0.166826, 0.169264, 0.164549
0.0612632, 0.0508596, -0.529078, 0.165591, 0.167692, 0.16463
0.0519258, 0.0749141, -0.578225, 0.165109, 0.165786, 0.164613
0.0185323, 0.0872017, -0.621309, 0.16504, 0.164352, 0.164447
-0.020058, 0.0800868, -0.635101, 0.165051, 0.164958, 0.164227
-0.0288369, 0.0652674, -0.599073, 0.165715, 0.166153, 0.164096
-0.0406465, 0.0586546, -0.546596, 0.166995, 0.167726, 0.164015
-0.048029, 0.0435177, -0.477995, 0.168427, 0.169158, 0.163972
-0.0581046, 0.0206756, -0.354454, 0.16995, 0.170528, 0.163951
-0.0522865, 0.0174432, -0.192536, 0.170739, 0.1711, 0.163968
-0.0314436, 0.0168427, -0.0491842, 0.170861, 0.170892, 0.16399
-0.0149986, 0.0115943, 0.02267, 0.170208, 0.170245, 0.163988
-0.0143271, 0.0088559, 0.0760182, 0.169082, 0.169192, 0.163991
-0.00138069, -0.0061266, 0.208609, 0.168167, 0.168429, 0.163989
0.0460057, -0.0360892, 0.352042, 0.167543, 0.168985, 0.163964
0.0554988, -0.0609171, 0.449631, 0.166965, 0.168037, 0.163969
0.0350952, -0.0702588, 0.453014, 0.165976, 0.165767, 0.164019
-0.00232765, -0.0586739, 0.34614, 0.164718, 0.164309, 0.164155
-0.0271215, -0.0553688, 0.224206, 0.164399, 0.164369, 0.164288
-0.0264853, -0.0427437, 0.125956, 0.164549, 0.164586, 0.164339
-0.00341786, -0.0364401, 0.0441459, 0.164983, 0.164804, 0.164285
0.0238311, -0.0240622, 0.00919958, 0.165484, 0.165381, 0.164184
0.050723, 0.0598791, 0.0196298, 0.169778, 0.166033, 0.164089
0.0772893, 0.170075, 0.0519084, 0.180797, 0.166417, 0.164038
0.0586296, 0.270701, 0.0951229, 0.192326, 0.16507, 0.164064
0.0116799, 0.370556, 0.119523, 0.202029, 0.165111, 0.164175
0.00643523, 0.426059, 0.12241, 0.199655, 0.165258, 0.164208
0.0145694, 0.431217, 0.0990872, 0.186874, 0.164882, 0.164206
0.0484487, 0.434415, 0.0643046, 0.176583, 0.164211, 0.164282
0.0736251, 0.45506, 0.0404002, 0.171399, 0.164196, 0.164498
0.0564254, 0.437984, 0.00294358, 0.166687, 0.164052, 0.164814
0.0239873, 0.373493, -0.0291818, 0.167357, 0.164508, 0.165159
0.0055464, 0.285329, -0.036538, 0.177221, 0.165042, 0.165504
0.00309188, 0.168266, -0.0340332, 0.196033, 0.164873, 0.165819
0.00692682, 0.0541805, -0.0231782, 0.214665, 0.164445, 0.166094
0.0181914, -0.067156, -0.00326991, 0.229434, 0.16404, 0.166285
0.0111193, -0.191331, -0.00155218, 0.237153, 0.164076, 0.166249
-0.0219922, -0.323983, 0.00203226, 0.238959, 0.164515, 0.165979
-0.0511362, -0.435115, -0.000981154, 0.231297, 0.164934, 0.16553
-0.0558537, -0.511059, 0.0132871, 0.21573, 0.164652, 0.165091
-0.0610297, -0.568824, 0.0324941, 0.199793, 0.164417, 0.164825
-0.0601221, -0.591469, 0.0410045, 0.184298, 0.164144, 0.164823
-0.0437275, -0.589041, 0.0512309, 0.173003, 0.163869, 0.165177
-0.0370144, -0.5696, 0.032147, 0.167701, 0.163816, 0.165773
-0.0321869, -0.552308, -0.0158806, 0.16801, 0.163844, 0.166527
-0.0190696, -0.53597, -0.0594368, 0.171537, 0.164012, 0.167317
-0.0141213, -0.5151, -0.0710457, 0.176529, 0.164142, 0.167931
-0.020358, -0.474215, -0.0679486, 0.182806, 0.164086, 0.168334
-0.0409537, -0.383545, -0.0388417, 0.1927, 0.163934, 0.168569
-0.0494737, -0.290241, -0.0581774, 0.200787, 0.163907, 0.168564
-0.0336417, -0.169735, -0.0687316, 0.208804, 0.163989, 0.16831
0.00794957, -0.061836, -0.0610076, 0.211391, 0.16445, 0.16771
0.0315954, 0.0445952, -0.0246489, 0.210052, 0.164712, 0.166898
0.0392547, 0.172148, 0.0267391, 0.208422, 0.164604, 0.16612
0.0540519, 0.332454, 0.0653078, 0.208183, 0.164605, 0.165521
0.0466079, 0.45472, 0.0783436, 0.202306, 0.164256, 0.165023
0.0307127, 0.526839, 0.0693425, 0.191723, 0.16394, 0.164652
0.0270174, 0.576338, 0.0543621, 0.181812, 0.16384, 0.164571
-0.00624907, 0.601211, 0.0305437, 0.173904, 0.163858, 0.164886
-0.0152677, 0.596988, -0.0125403, 0.168716, 0.163902, 0.165433
-0.0196148, 0.587768, -0.0695929, 0.167479, 0.16394, 0.166213
-0.00102792, 0.576576, -0.10221, 0.16898, 0.163822, 0.16704
0.0218901, 0.534124, -0.078987, 0.172554, 0.163737, 0.167788
0.0211472, 0.487291, -0.0434328, 0.177139, 0.163727, 0.168424
0.0248814, 0.44126, -0.0256587, 0.181179, 0.163759, 0.168806
0.0170729, 0.359341, -0.0376183, 0.186124, 0.163756, 0.168927
0.0108944, 0.223626, -0.0522423, 0.193252, 0.163747, 0.16884
0.0222789, 0.0820624, -0.0442066, 0.198738, 0.163791, 0.168525
0.0312691, -0.0323729, -0.0102113, 0.19914, 0.163892, 0.167925
0.000147006, -0.157181, 0.0263459, 0.198053, 0.163922, 0.167156
-0.0321701, -0.274446, 0.0540578, 0.194843, 0.164077, 0.166305
-0.0414727, -0.368173, 0.0828489, 0.189241, 0.164131, 0.165466
-0.0440648, -0.444931, 0.105881, 0.183018, 0.164076, 0.164794
-0.0377063, -0.511135, 0.0974203, 0.177594, 0.163919, 0.16444
-0.0645529, -0.548067, 0.047646, 0.172586, 0.163913, 0.164387
-0.0567296, -0.568821, -0.0135995, 0.169161, 0.163775, 0.164758
-0.0253946, -0.590224, -0.0662392, 0.167787, 0.16371, 0.16546
-0.0123991, -0.585764, -0.085059, 0.167624, 0.163767, 0.166283
-0.029565, -0.570056, -0.0612372, 0.168833, 0.163748, 0.167086
-0.0544638, -0.545372, -0.0165773, 0.170945, 0.163759, 0.167792
-0.0626308, -0.472178, 0.0154482, 0.174395, 0.163791, 0.168398
-0.0566366, -0.289085, -0.00952188, 0.182491, 0.163798, 0.168982
-0.0264406, -0.137536, -0.0409347, 0.189405, 0.163843, 0.169117
-0.0166388, -0.00666569, -0.0619878, 0.193192, 0.163863, 0.168748
-0.000891829, 0.149654, -0.0501683, 0.196362, 0.163873, 0.168126
0.0345877, 0.301218, 0.0112592, 0.197239, 0.16404, 0.167295
0.0513311, 0.440172, 0.116534, 0.195729, 0.164189, 0.166426
0.0365576, 0.554238, 0.206809, 0.191731, 0.164186, 0.165654
0.0318643, 0.591084, 0.21769, 0.183131, 0.164134, 0.164856
0.026326, 0.614154, 0.151483, 0.17598, 0.163947, 0.164516
0.0383035, 0.618766, 0.0954323, 0.17091, 0.163878, 0.164656
0.0453586, 0.597379, 0.0332761, 0.168005, 0.163881, 0.165234
0.0586601, 0.580013, -0.0287162, 0.167655, 0.163935, 0.16609
0.0840666, 0.575527, -0.0814198, 0.168748, 0.164041, 0.167019
0.0863715, 0.554223, -0.101216, 0.170356, 0.163995, 0.167842
0.0677249, 0.501374, -0.114197, 0.172482, 0.163863, 0.168481
0.0390372, 0.431707, -0.097417, 0.174824, 0.163792, 0.168871
-0.0028526, 0.390671, -0.0843376, 0.175742, 0.163906, 0.168886
-0.030878, 0.277305, -0.0579064, 0.178169, 0.164069, 0.16879
-0.0433024, 0.0853811, -0.0677307, 0.183236, 0.164081, 0.168712
-0.0135576, -0.108389, -0.0533814, 0.187788, 0.163848, 0.168492
-0.0282076, -0.315871, -0.0126918, 0.19192, 0.16393, 0.168246
-0.0638159, -0.488737, 0.0373581, 0.19265, 0.164137, 0.167651
-0.0791523, -0.59093, 0.0603593, 0.188302, 0.164191, 0.166596
-0.0799764, -0.61922, 0.0832317, 0.180638, 0.164203, 0.165438
-0.0973285, -0.639964, 0.095223, 0.174803, 0.164266, 0.164845
-0.0909997, -0.658631, 0.0780431, 0.171195, 0.164168, 0.16491
-0.0518087, -0.676359, 0.0275493, 0.169476, 0.164049, 0.165542
-0.0100725, -0.69964, -0.0191685, 0.16927, 0.164116, 0.166485
-0.00963209, -0.673184, -0.0382798, 0.169447, 0.164065, 0.167452
-0.025999, -0.609162, -0.0394665, 0.170631, 0.163946, 0.168433
-0.0361895, -0.489389, -0.0300362, 0.1734, 0.163889, 0.169411
-0.0379284, -0.289053, -0.0202164, 0.179239, 0.163879, 0.1704
-0.0110587, -0.101849, -0.0363948, 0.185214, 0.163899, 0.170857
0.0141102, 0.0129949, -0.0439819, 0.186767, 0.163912, 0.170325
0.0288427, 0.143195, -0.0352475, 0.187314, 0.163883, 0.169456
0.0445267, 0.254334, -0.0143039, 0.185668, 0.163897, 0.168273
0.0390291, 0.345129, -0.00880324, 0.182381, 0.163831, 0.16703
0.0392848, 0.423758, 0.0201164, 0.178775, 0.163839, 0.165949
0.0360962, 0.410119, 0.0332479, 0.172507, 0.163831, 0.164846
0.0295995, 0.31424, 0.0289784, 0.166536, 0.163802, 0.16413
0.0213627, 0.206869, 0.0109593, 0.164269, 0.163773, 0.16412
0.0257037, 0.144764, -0.00468321, 0.164809, 0.163749, 0.164515
0.0541085, 0.105228, -0.00788828, 0.166147, 0.163772, 0.164959
0.102842, 0.0995774, -0.01384, 0.167058, 0.163951, 0.165251
0.174911, 0.0964843, -0.00489086, 0.167531, 0.164475, 0.165401
0.262359, 0.0551367, -0.0194577, 0.168275, 0.165438, 0.165564
0.379505, 0.0186842, -0.0367882, 0.168586, 0.167301, 0.165721
0.469741, -0.00235452, -0.0866378, 0.16828, 0.168813, 0.165777
0.524251, -0.036801, -0.121487, 0.167993, 0.169387, 0.165776
0.52044, -0.0953549, -0.127051, 0.168008, 0.168383, 0.165753
0.472968, -0.098643, -0.116556, 0.166821, 0.166809, 0.16558
0.423164, -0.0745895, -0.0818963, 0.165404, 0.165906, 0.165517
0.37477, -0.0506188, -0.0462712, 0.164505, 0.165668, 0.165605
0.315193, -0.0199988, -0.0106183, 0.164064, 0.165902, 0.165723
0.233644, -0.00766894, -0.00538218, 0.163994, 0.166594, 0.165837
0.109315, 0.00654676, -0.00851894, 0.164084, 0.168217, 0.165887
-0.0186954, 0.0147294, 0.00655691, 0.164272, 0.170358, 0.165805
-0.162412, 0.0130196, 0.0257365, 0.164418, 0.172947, 0.165662
-0.328785, 0.0200884, 0.0344601, 0.164526, 0.176098, 0.165529
-0.487278, 0.0160915, 0.0356854, 0.164477, 0.178575, 0.165352
-0.552343, 0.0228231, 0.0244629, 0.164416, 0.176812, 0.16481
-0.586427, 0.0256134, 0.00807557, 0.16431, 0.173999, 0.164444
-0.595493, 0.0370806, -0.0130387, 0.164237, 0.171105, 0.164452
-0.56848, 0.0502441, -0.0202953, 0.164191, 0.16841, 0.164824
-0.518264, 0.0562339, 0.000496344, 0.164157, 0.166833, 0.165514
-0.444571, 0.0488741, 0.0279986, 0.164098, 0.166523, 0.166338
-0.405901, 0.0465301, 0.039873, 0.164072, 0.167179, 0.167029
-0.358299, 0.0349956, 0.0291541, 0.164022, 0.168046, 0.167471
-0.333432, 0.03099, -0.00279884, 0.16399, 0.168573, 0.16762
-0.328192, 0.0442471, -0.0487806, 0.163956, 0.168558, 0.167523
-0.261339, 0.0515896, -0.0570233, 0.163945, 0.168986, 0.167315
-0.194363, 0.0513341, -0.0450208, 0.163928, 0.169161, 0.166914
-0.12798, 0.0511249, -0.0306972, 0.16391, 0.169066, 0.166368
-0.083695, 0.0535063, -0.0254876, 0.163896, 0.168339, 0.165752
-0.0284664, 0.0567081, -0.0192489, 0.163889, 0.167685, 0.165163
0.0591475, 0.0460264, -0.00629591, 0.163882, 0.167615, 0.16464
0.142162, 0.0345785, 0.00909816, 0.163882, 0.16749, 0.164213
0.233646, 0.0224092, 0.0215207, 0.163891, 0.167604, 0.163941
0.321131, 0.00510882, 0.0232728, 0.163914, 0.167686, 0.163847
0.408039, -0.0161964, 0.0150738, 0.163953, 0.167912, 0.16396
0.495358, -0.0424015, 0.00627454, 0.164023, 0.168353, 0.164286
0.572402, -0.0577855, -0.0154928, 0.164041, 0.168734, 0.164791
0.618717, -0.0683399, -0.0381775, 0.164032, 0.168633, 0.165376
0.62079, -0.0811459, -0.0663729, 0.164036, 0.167987, 0.165971
0.610778, -0.107638, -0.0746992, 0.164123, 0.16768, 0.166617
0.586241, -0.12372, -0.0564642, 0.164164, 0.167695, 0.167242
0.584644, -0.114048, -0.00757478, 0.164103, 0.168142, 0.167787
0.54051, -0.115274, 0.0255331, 0.164151, 0.168551, 0.168222
0.403086, -0.0847215, 0.0218578, 0.164114, 0.169666, 0.168597
0.277733, -0.0385392, 0.00540355, 0.164166, 0.171314, 0.168826
0.165542, -0.00563273, 0.00676121, 0.16427, 0.172759, 0.168743
0.0173512, 0.00700819, 0.0104692, 0.164226, 0.174856, 0.168574
-0.153853, 0.0224669, -0.00108445, 0.164138, 0.177405, 0.168301
-0.350057, 0.0550804, 0.0122997, 0.164217, 0.180747, 0.16818
-0.505618, 0.0692944, 0.0385541, 0.164204, 0.18199, 0.167804
-0.593187, 0.0640684, 0.0637267, 0.164065, 0.179833, 0.167027
-0.678223, 0.0865562, 0.0581391, 0.164085, 0.177765, 0.166513
-0.733148, 0.123212, 0.0319584, 0.164178, 0.175176, 0.166361
-0.695963, 0.132855, 0.00357328, 0.164106, 0.170856, 0.166158
-0.643029, 0.142141, -0.00430559, 0.164068, 0.168316, 0.166578
-0.58386, 0.127155, -0.0151684, 0.163935, 0.167669, 0.167382
-0.541584, 0.0908696, -0.0097237, 0.163876, 0.168381, 0.168343
-0.483521, 0.0586361, 0.0093114, 0.163948, 0.169607, 0.169192
-0.425659, 0.0497391, 0.0135268, 0.163985, 0.170871, 0.169758
-0.353785, 0.04251, -0.0100912, 0.163965, 0.171963, 0.170035
-0.258311, 0.0327354, -0.0180922, 0.163956, 0.17297, 0.170116
-0.160314, 0.0184032, -0.0244778, 0.163967, 0.173483, 0.169954
-0.0632255, 0.0127378, -0.0265882, 0.163949, 0.173426, 0.169504
0.0500479, 0.0033302, -0.0275905, 0.163944, 0.173356, 0.168933
0.150597, -0.0168688, -0.023133, 0.163958, 0.172707, 0.168097
0.23553, -0.02371, -0.0118481, 0.163934, 0.171665, 0.167165
0.321247, -0.0421839, -0.00917705, 0.163946, 0.17054, 0.16636
0.423855, -0.0536056, -0.0249114, 0.163923, 0.170182, 0.165928
0.543938, -0.059406, -0.0294422, 0.163926, 0.170673, 0.16593
0.638851, -0.0530128, -0.0135471, 0.163937, 0.170849, 0.166065
0.685552, -0.0541798, 0.00301258, 0.163987, 0.170121, 0.16616
0.710434, -0.0380299, 0.00253752, 0.16401, 0.169515, 0.166511
0.693742, -0.0563563, 0.00355904, 0.164041, 0.168849, 0.16706
0.670559, -0.0868603, 0.0045085, 0.164073, 0.168805, 0.167857
0.652024, -0.0950619, 0.000377787, 0.164079, 0.16925, 0.168721
0.612942, -0.0996628, 0.005268, 0.164096, 0.169802, 0.169449
0.547195, -0.0958696, 0.010014, 0.164115, 0.170461, 0.169952
0.454056, -0.0446819, 0.00398115, 0.164175, 0.171329, 0.170152
0.31538, -0.0213815, 0.00780993, 0.164268, 0.17284, 0.170207
0.166768, -0.0050238, 0.000985296, 0.164313, 0.174534, 0.170028
-0.0181917, 0.019265, 0.00401263, 0.164391, 0.177036, 0.16977
-0.182393, 0.0447294, 0.00354809, 0.164444, 0.178569, 0.169212
-0.349644, 0.0551666, 0.0261644, 0.164419, 0.179808, 0.16865
-0.49868, 0.0705425, 0.0318811, 0.164364, 0.179974, 0.168018
-0.618014, 0.0922562, 0.0154495, 0.164307, 0.178833, 0.167441
-0.73011, 0.107006, -0.0129669, 0.164219, 0.177655, 0.167298
-0.796569, 0.0911581, -0.035642, 0.164046, 0.175411, 0.167208
-0.82639, 0.0890092, -0.0391768, 0.164013, 0.173027, 0.16749
-0.777303, 0.0870813, -0.0291699, 0.164118, 0.170274, 0.16789
-0.69271, 0.0560259, -0.0022981, 0.164332, 0.169153, 0.168594
-0.54642, 0.00986084, 0.0399033, 0.1647, 0.16993, 0.16945
-0.380646, -0.0165299, 0.0676383, 0.165077, 0.172832, 0.170301
-0.273682, -0.0355782, 0.070131, 0.165358, 0.175366, 0.170688
-0.199804, -0.0644022, 0.0778115, 0.165593, 0.176411, 0.170448
-0.0951136, -0.10858, 0.126607, 0.165887, 0.177215, 0.169874
-0.0143951, -0.208406, 0.222707, 0.166781, 0.176662, 0.168959
0.00193113, -0.313978, 0.281025, 0.16789, 0.173826, 0.167756
0.0130695, -0.380528, 0.284154, 0.168225, 0.170809, 0.166731
0.0326347, -0.409647, 0.273818, 0.167832, 0.168376, 0.166095
0.0538975, -0.42079, 0.253988, 0.16719, 0.166524, 0.165873
0.0982267, -0.403457, 0.162047, 0.166309, 0.165434, 0.166075
0.129088, -0.376664, -0.00682017, 0.165935, 0.164914, 0.166536
0.143852, -0.336634, -0.202434, 0.16632, 0.165148, 0.167028
0.166678, -0.265441, -0.347654, 0.167154, 0.165876, 0.167349
0.193244, -0.184419, -0.43839, 0.168189, 0.166601, 0.167447
0.191972, -0.0998383, -0.487935, 0.169199, 0.167175, 0.167071
0.182178, -0.0163466, -0.491174, 0.169981, 0.16765, 0.166444
0.163556, 0.00771142, -0.468034, 0.169773, 0.168065, 0.165833
0.143276, -0.0095668, -0.47354, 0.168956, 0.168441, 0.165374
0.102058, 0.0121992, -0.499438, 0.168486, 0.168763, 0.165081
0.0755255, 0.0379225, -0.486506, 0.168027, 0.168744, 0.16506
0.0671085, 0.0447939, -0.423658, 0.167565, 0.168471, 0.165233
0.05186, 0.0571969, -0.360871, 0.167296, 0.168196, 0.165597
0.0324409, 0.0632422, -0.288573, 0.167136, 0.167931, 0.166102
0.0351705, 0.0640261, -0.206468, 0.167083, 0.167534, 0.166579
0.0567236, 0.0461004, -0.170526, 0.166882, 0.166913, 0.166846
0.0582771, 0.0484732, -0.155914, 0.166666, 0.166409, 0.167182
0.0418239, 0.0636005, -0.101037, 0.166649, 0.166239, 0.16758
0.0349231, 0.0470855, -0.0975125, 0.166537, 0.16596, 0.167528
0.0204868, 0.0465193, -0.111591, 0.166462, 0.165793, 0.167381
0.00218984, 0.0159942, -0.019362, 0.166866, 0.166102, 0.167037
0.00686538, -0.00554448, -0.0190937, 0.166956, 0.166102, 0.166247
-0.0180112, 0.0151201, 0.0115827, 0.166902, 0.166144, 0.165813
-0.00433613, -0.000187484, 0.00181417, 0.166769, 0.166035, 0.165066
0.00271711, -0.00146874, 0.00236839, 0.166539, 0.165922, 0.164586
0.00157787, -0.00112218, 0.00269287, 0.16624, 0.165747, 0.164301
0.00693983, -0.00373436, 0.000363654, 0.16589, 0.165543, 0.164123
-0.00473494, -0.00248427, -0.00085713, 0.165506, 0.165265, 0.164037
0.00440803, -0.00222507, 0.000453163, 0.165154, 0.165026, 0.164015
-0.000102584, -0.00257235, -0.00178448, 0.164838, 0.164774, 0.164009
0.00144526, -0.00244738, -0.00279125, 0.16456, 0.164545, 0.164013
0.000949841, -0.00298717, -0.00274926, 0.164322, 0.164331, 0.164
0.000466006, -0.00123689, -0.00213181, 0.164135, 0.164153, 0.16398
0.00211942, -0.00223512, -0.00244299, 0.164004, 0.164023, 0.163965
-0.00013574, -0.000877036, -0.00355324, 0.163902, 0.163914, 0.163925
0.00164439, -0.00266319, -0.00283179, 0.163825, 0.163831, 0.163884
-0.000279593, -0.00147681, -0.00228598, 0.163785, 0.163784, 0.163844
0.00140007, -0.00277173, -0.00222142, 0.163753, 0.163748, 0.163806
-0.000345016, -0.00129399, -0.00295604, 0.163735, 0.163727, 0.163764
0.000786819, -0.00242487, -0.00181373, 0.163738, 0.16373, 0.163748
-0.000959596, -0.00175449, -0.00179882, 0.163744, 0.163739, 0.163732
2.72842e-05, -0.00187465, -0.000484755, 0.163746, 0.163742, 0.163716
-0.000536082, -0.000751357, -0.000339005, 0.163754, 0.163754, 0.163711
0.000621683, -0.000978158, 0.000201411, 0.163759, 0.16376, 0.163707
0.000349089, -0.000172661, 0.00130834, 0.163762, 0.163765, 0.163704
0.00053154, 0.000949568, 0.00156101, 0.163758, 0.163762, 0.163697
0.00049446, 0.00155693, 0.00243044, 0.163761, 0.163766, 0.163698
-0.000131524, 0.0025002, 0.00244587, 0.163764, 0.16377, 0.163701
6.42834e-05, 0.00190755, 0.00214997, 0.16377, 0.163775, 0.163709
-0.000515926, 0.00209737, 0.00152406, 0.163771, 0.163777, 0.163713
-0.000318161, 0.00119766, 0.000757807, 0.163758, 0.163764, 0.163702
-0.000168416, 0.00178946, 0.000282514, 0.163738, 0.163743, 0.163686
-5.16932e-05, 0.00205917, 0.000213545, 0.163729, 0.163733, 0.163678
2.64896e-05, 0.00184918, 0.000299034, 0.163732, 0.163735, 0.163682
1.88042e-06, 0.0017891, 0.000861995, 0.163732, 0.163735, 0.163684
8.17201e-05, 0.00127652, 0.000715508, 0.16374, 0.163742, 0.163693
-0.000231852, 0.00137387, 0.00145983, 0.163755, 0.163757, 0.163708
0.000447343, 0.000809883, 0.00233818, 0.163753, 0.163754, 0.163706
-2.2658e-06, 0.000165952, 0.00233802, 0.16375, 0.163752, 0.163704
-0.000228995, -0.000368417, 0.00106377, 0.163754, 0.163755, 0.163709
-0.000607799, -0.000388414, 0.000726251, 0.163757, 0.163758, 0.163713
-0.000612906, -0.000476705, -0.000624451, 0.163753, 0.163755, 0.163711
-0.000265847, -0.000129734, -0.000961004, 0.163738, 0.16374, 0.163698
0.000195134, 0.000511353, -0.000581771, 0.163724, 0.163726, 0.163684
1.12564e-05, -0.000177041, -0.000767478, 0.163712, 0.163714, 0.163672
-0.000119227, 3.63876e-05, -0.00089036, 0.163712, 0.163714, 0.163673
-0.000538698, -0.000103461, -0.00186374, 0.163726, 0.163728, 0.163687
-0.000215202, -0.000338518, -0.000743861, 0.163736, 0.163738, 0.163697
