0, 0, 0, 0.0316228, 0.0316228, 0.0316228
0.00795333, 0.000658272, 0.00300462, 0.141173, 0.141173, 0.076571
0.00259736, 0.0180933, 0.010181, 0.164668, 0.164431, 0.0889035
-0.00897475, 0.0265875, 0.139709, 0.184397, 0.182727, 0.101781
-0.00394533, -0.0111256, 0.264642, 0.195, 0.192438, 0.114259
0.0103189, -0.0531128, 0.302815, 0.19697, 0.193933, 0.125626
-0.027429, -0.0457065, 0.319538, 0.196928, 0.19298, 0.135485
-0.0630764, -0.0272071, 0.295807, 0.192738, 0.191956, 0.141758
-0.0602247, -0.0374565, 0.149903, 0.191585, 0.190777, 0.146851
-0.0438098, -0.0349822, -0.0608304, 0.194255, 0.192812, 0.151007
-0.0438919, -0.0238602, -0.240152, 0.200731, 0.199128, 0.154122
-0.0419039, -0.00413301, -0.381332, 0.207584, 0.205672, 0.156875
-0.0576506, 0.00346195, -0.487233, 0.213325, 0.209481, 0.160663
-0.0552414, -0.0094881, -0.596607, 0.222365, 0.210686, 0.168555
-0.0249087, -0.0185225, -0.713526, 0.233445, 0.211795, 0.179039
-0.00319775, 0.00844865, -0.842411, 0.242459, 0.212558, 0.188768
0.00610822, 0.0200557, -0.997072, 0.247502, 0.211835, 0.196293
0.0100196, 0.0104164, -1.0621, 0.250345, 0.212656, 0.200354
0.0307264, -0.016095, -1.00759, 0.246316, 0.215012, 0.197571
0.039844, -0.0316684, -0.858438, 0.233293, 0.216509, 0.187315
0.0315737, -0.0137051, -0.663435, 0.21785, 0.21583, 0.176073
0.00450251, 0.0204659, -0.462882, 0.20884, 0.216793, 0.17148
-0.0126789, 0.0401906, -0.278775, 0.206304, 0.22361, 0.174495
-0.0410858, 0.0536133, -0.176393, 0.20584, 0.235591, 0.184838
-0.051282, 0.0589467, -0.131182, 0.205265, 0.253732, 0.202258
-0.0533603, 0.0577021, -0.109532, 0.20511, 0.27743, 0.223643
-0.0467858, 0.0410129, -0.109533, 0.204491, 0.304557, 0.24693
-0.0229396, 0.0231502, -0.108321, 0.203791, 0.334223, 0.27118
0.0214429, 0.030589, -0.0817759, 0.203307, 0.36151, 0.294685
0.0481859, 0.0286983, -0.044099, 0.201729, 0.381692, 0.315088
0.0542195, 0.00448132, -0.0257735, 0.198414, 0.389572, 0.329604
0.0464635, -0.0524359, -0.0319106, 0.194734, 0.383847, 0.336525
0.0185398, -0.0673833, -0.0252026, 0.191988, 0.364094, 0.334761
-0.0229067, -0.0858149, -0.0215979, 0.189232, 0.338002, 0.323662
-0.0347572, -0.121511, -0.0228616, 0.18696, 0.308807, 0.305503
-0.0440057, -0.144359, -0.0345856, 0.1855, 0.278194, 0.282733
-0.0403436, -0.12343, -0.0312297, 0.184756, 0.247528, 0.257341
-0.0310331, -0.101065, -0.013435, 0.184657, 0.221032, 0.232708
-0.0268424, -0.0744584, 0.0051135, 0.184786, 0.200225, 0.212234
-0.0252374, -0.0366045, 0.023466, 0.184901, 0.185823, 0.197413
-0.0200265, -0.0108757, 0.028807, 0.184755, 0.177487, 0.188012
-0.0173501, 0.00547298, 0.0438039, 0.184915, 0.174362, 0.183369
-0.0183219, 0.0123041, 0.0584306, 0.185045, 0.175219, 0.182297
-0.00868521, 0.0312604, 0.0839436, 0.18489, 0.178867, 0.183619
-0.00618134, 0.05554, 0.115433, 0.184727, 0.184893, 0.186918
-0.00432608, 0.0592628, 0.147468, 0.184899, 0.193135, 0.192169
0.0262751, 0.0654378, 0.189516, 0.185229, 0.204344, 0.200169
0.0440759, 0.0650231, 0.234937, 0.186518, 0.219387, 0.211414
0.0302464, 0.0553814, 0.292336, 0.188672, 0.23674, 0.224612
0.00643804, 0.038897, 0.355978, 0.191864, 0.254511, 0.238175
-0.0140334, 0.00244835, 0.387504, 0.196216, 0.271076, 0.251896
-0.0338396, -0.0351382, 0.38743, 0.20016, 0.285317, 0.264871
-0.0482958, -0.0429858, 0.366599, 0.202176, 0.296337, 0.276026
-0.041101, -0.0372689, 0.318365, 0.202497, 0.302811, 0.284901
-0.0281199, -0.0204397, 0.230903, 0.199084, 0.303194, 0.291009
-0.0384702, 0.00232804, 0.131091, 0.192486, 0.298097, 0.294676
-0.0521384, 0.0138888, 0.104543, 0.186195, 0.290682, 0.296816
-0.0553356, -0.0369008, 0.175997, 0.183288, 0.283341, 0.296684
-0.0601731, -0.0936555, 0.25249, 0.181858, 0.276102, 0.294325
-0.0768458, -0.126905, 0.262271, 0.181402, 0.268524, 0.290549
-0.0874884, -0.16959, 0.254188, 0.18066, 0.260782, 0.286675
-0.109408, -0.216673, 0.280967, 0.180059, 0.252341, 0.281807
-0.128678, -0.242284, 0.320324, 0.179618, 0.241877, 0.273889
-0.135455, -0.259235, 0.33893, 0.178766, 0.229344, 0.262502
-0.132482, -0.245344, 0.339441, 0.177548, 0.216132, 0.24964
-0.130746, -0.208747, 0.29072, 0.175579, 0.203307, 0.236546
-0.124778, -0.175376, 0.215851, 0.173476, 0.191959, 0.22404
-0.094927, -0.131208, 0.148974, 0.17218, 0.183832, 0.213471
-0.0558405, -0.0772318, 0.0899048, 0.171882, 0.179476, 0.205326
-0.0220499, -0.0251195, 0.0505263, 0.172658, 0.178082, 0.199479
0.00432262, 0.00503209, 0.0388355, 0.174711, 0.178675, 0.195703
0.0225621, 0.0360412, 0.043651, 0.177839, 0.181301, 0.194152
0.0415024, 0.0756285, 0.0518872, 0.182521, 0.1867, 0.195721
0.0552802, 0.112618, 0.0521336, 0.188287, 0.195202, 0.200833
0.0701212, 0.145763, 0.0503145, 0.194576, 0.206731, 0.209181
0.074076, 0.200496, 0.00139685, 0.201563, 0.219958, 0.219885
0.0912873, 0.233929, -0.0930838, 0.206087, 0.234042, 0.231651
0.118523, 0.263634, -0.203408, 0.208831, 0.247311, 0.242903
0.147847, 0.267149, -0.316812, 0.20783, 0.257824, 0.251761
0.176161, 0.226089, -0.412927, 0.202852, 0.264042, 0.257017
0.195, 0.178284, -0.470798, 0.196119, 0.264696, 0.257844
0.191964, 0.127145, -0.469333, 0.187879, 0.260031, 0.254375
0.177071, 0.1138, -0.41321, 0.181639, 0.252071, 0.248369
0.138555, 0.112023, -0.350875, 0.176134, 0.242358, 0.241482
0.108714, 0.0973192, -0.296827, 0.171565, 0.232855, 0.235262
0.0784716, 0.106578, -0.238834, 0.16901, 0.224185, 0.230084
0.0541169, 0.0836585, -0.169088, 0.16759, 0.216441, 0.226331
0.0194882, 0.0651267, -0.12086, 0.167867, 0.209179, 0.223302
-0.0357221, 0.0808891, -0.111611, 0.168933, 0.202888, 0.22055
-0.0601367, 0.0664686, -0.0900899, 0.170572, 0.198069, 0.218403
-0.0569671, 0.0425341, -0.0409708, 0.172679, 0.19316, 0.215753
-0.0435875, 0.0312993, -0.00960231, 0.174976, 0.187583, 0.212036
-0.0253966, -0.0182496, -0.0205752, 0.176151, 0.182517, 0.207198
-0.0314375, 0.040604, 0.039286, 0.176392, 0.178021, 0.202621
-0.040796, 0.0877845, 0.142892, 0.177174, 0.175403, 0.198235
-0.0328405, 0.05118, 0.217639, 0.178293, 0.174646, 0.193559
-0.00306139, -0.0361407, 0.276449, 0.179658, 0.175565, 0.189848
0.0462344, -0.0915261, 0.31829, 0.180813, 0.178317, 0.188697
0.0600136, -0.121647, 0.356908, 0.182262, 0.183639, 0.190928
0.0554271, -0.174648, 0.352649, 0.184963, 0.19166, 0.196767
0.0522936, -0.21296, 0.326668, 0.187545, 0.201469, 0.20472
0.0441716, -0.221397, 0.284893, 0.189095, 0.211719, 0.213029
0.0283452, -0.202455, 0.198457, 0.188371, 0.220826, 0.220383
0.0144141, -0.14781, 0.0780016, 0.185628, 0.227915, 0.22624
0.00683437, -0.075871, -0.0153245, 0.181753, 0.232046, 0.230067
-0.00184203, -0.0060002, -0.0584163, 0.177175, 0.233299, 0.231475
-0.0240124, 0.0215759, -0.0284887, 0.173892, 0.233124, 0.230753
-0.0538285, 0.0112284, 0.0512774, 0.172551, 0.231898, 0.227916
-0.0802466, -0.00120907, 0.0981087, 0.172868, 0.228201, 0.223306
-0.0967341, -0.037266, 0.12015, 0.173267, 0.221796, 0.218382
-0.111992, -0.0857069, 0.128152, 0.173284, 0.213945, 0.214488
-0.140918, -0.121414, 0.124841, 0.173248, 0.205961, 0.211762
-0.163375, -0.116367, 0.127375, 0.173415, 0.198461, 0.209516
-0.155517, -0.100231, 0.118483, 0.172748, 0.191493, 0.206948
-0.143918, -0.0507066, 0.0976655, 0.171867, 0.185399, 0.203734
-0.0999539, -2.59622e-05, 0.0947253, 0.171526, 0.180164, 0.199861
-0.0741471, 0.0466, 0.0972965, 0.172061, 0.176476, 0.196135
-0.0586876, 0.0956584, 0.0847672, 0.173567, 0.17435, 0.193389
-0.0280235, 0.149302, 0.0624482, 0.176389, 0.174107, 0.19227
0.00451426, 0.195819, 0.012583, 0.17998, 0.176069, 0.19326
0.0319869, 0.218112, -0.0567535, 0.183587, 0.17992, 0.196402
0.0380392, 0.250118, -0.108667, 0.18866, 0.18506, 0.201184
0.0443636, 0.247263, -0.154362, 0.191666, 0.190804, 0.205925
0.0480509, 0.242492, -0.202652, 0.194246, 0.195964, 0.209127
0.0615375, 0.192867, -0.23942, 0.192753, 0.199088, 0.208628
0.0659354, 0.135152, -0.241831, 0.189031, 0.199133, 0.204327
0.0595994, 0.0900641, -0.233758, 0.184715, 0.196192, 0.197917
0.0573558, 0.0568692, -0.217991, 0.180435, 0.191307, 0.191145
0.056594, 0.0346728, -0.16087, 0.176763, 0.185614, 0.18497
0.049219, 0.013713, -0.0902262, 0.173599, 0.180033, 0.179975
0.0336981, -0.00279795, -0.0210956, 0.171633, 0.175225, 0.176414
0.0205528, -0.0284598, 0.0463517, 0.171085, 0.171579, 0.174245
0.019372, -0.0918819, 0.0913797, 0.171054, 0.168949, 0.173364
0.0242354, -0.188532, 0.095246, 0.171331, 0.167301, 0.173282
0.0215474, -0.277244, 0.095375, 0.172164, 0.168516, 0.173523
0.000409018, -0.353874, 0.0638333, 0.175148, 0.176179, 0.173819
-0.0380412, -0.392006, 0.0235417, 0.180812, 0.192093, 0.173882
-0.0506671, -0.452361, 0.0639704, 0.191658, 0.213781, 0.174195
-0.0921283, -0.486009, 0.157938, 0.206, 0.239102, 0.174676
-0.1464, -0.507706, 0.196742, 0.223553, 0.264457, 0.175192
-0.234707, -0.496425, 0.228275, 0.242897, 0.286368, 0.175414
-0.381661, -0.382722, 0.238576, 0.261116, 0.301456, 0.175169
-0.627257, -0.176328, 0.198622, 0.275367, 0.307845, 0.174759
-0.909118, 0.0800904, 0.158447, 0.287565, 0.305262, 0.173976
-1.0577, 0.317477, 0.0946514, 0.300424, 0.296366, 0.174023
-1.10724, 0.48149, 0.042045, 0.310204, 0.282137, 0.175508
-1.07315, 0.612498, 0.0300954, 0.310541, 0.264469, 0.178309
-0.973275, 0.721543, 0.0243275, 0.30068, 0.24651, 0.182203
-0.814886, 0.744123, 0.020554, 0.282915, 0.230127, 0.186022
-0.637817, 0.718041, 0.0295405, 0.262626, 0.21633, 0.188444
-0.464434, 0.589575, 0.0351729, 0.245093, 0.205228, 0.18822
-0.347995, 0.373165, 0.0222492, 0.232789, 0.198252, 0.184682
0.0826949, 0.0233797, 0.0168157, 0.224822, 0.195342, 0.178338
0.280897, -0.260317, 0.012623, 0.226591, 0.196419, 0.170791
0.416421, -0.447085, 0.0316535, 0.232809, 0.201097, 0.167666
0.480761, -0.54356, 0.0529206, 0.239246, 0.205182, 0.169462
0.57008, -0.736842, 0.0781972, 0.238107, 0.208666, 0.174188
0.839857, -0.746194, 0.107403, 0.234639, 0.211314, 0.180931
1.13689, -0.533242, 0.116394, 0.234732, 0.215451, 0.188912
1.40351, -0.306274, 0.0910142, 0.236113, 0.221283, 0.196076
1.43192, -0.0339627, 0.0326041, 0.235703, 0.229079, 0.202769
1.4376, 0.245849, -0.10951, 0.2323, 0.23741, 0.20692
1.60876, 0.552103, -0.306875, 0.224275, 0.246429, 0.209539
1.62038, 0.926568, -0.345981, 0.213966, 0.25509, 0.214366
1.4402, 1.25565, -0.372909, 0.20379, 0.261824, 0.220679
1.1434, 1.4697, -0.386502, 0.19682, 0.264709, 0.227332
0.804331, 1.44822, -0.402336, 0.195677, 0.263377, 0.232883
0.388734, 1.50232, -0.371402, 0.200416, 0.258328, 0.234017
-0.00613749, 1.64878, -0.355532, 0.20876, 0.249729, 0.23131
-0.374774, 1.60185, -0.286806, 0.218127, 0.239377, 0.228163
-0.640614, 1.45208, -0.221155, 0.225966, 0.229006, 0.223039
-0.704534, 1.18128, -0.148259, 0.23085, 0.220079, 0.215951
-0.628435, 0.86148, -0.0689795, 0.232424, 0.212777, 0.206508
-0.533943, 0.548999, 0.00228738, 0.231243, 0.206956, 0.196128
-0.435717, 0.251694, 0.0281104, 0.228522, 0.201988, 0.187059
-0.355269, 0.00901687, 0.0496863, 0.224388, 0.197676, 0.180476
-0.20645, -0.208648, 0.0793034, 0.218573, 0.193794, 0.17638
-0.0452523, -0.569285, 0.0745645, 0.212161, 0.190077, 0.17431
0.0965401, -0.724997, 0.0694378, 0.207483, 0.186925, 0.17477
0.206562, -0.893149, 0.062414, 0.204461, 0.184721, 0.177276
0.258778, -1.06213, 0.0342333, 0.201611, 0.183988, 0.181074
0.123325, -1.25446, 0.0024864, 0.199426, 0.185517, 0.186085
-0.109649, -1.39848, 0.0197292, 0.198045, 0.190624, 0.192783
-0.459735, -1.35461, 0.0680389, 0.197438, 0.198977, 0.200637
-0.690129, -1.1775, 0.143545, 0.196665, 0.210043, 0.207904
-0.922173, -0.924785, 0.215245, 0.197045, 0.219991, 0.21212
-1.22431, -0.582186, 0.124397, 0.199288, 0.226575, 0.21336
-1.46196, -0.245974, 0.0442177, 0.203797, 0.229541, 0.213786
-1.50065, -0.021832, -0.0115019, 0.210194, 0.229304, 0.214511
-1.46858, 0.499712, -0.0501206, 0.215666, 0.225787, 0.213591
-1.39997, 1.01488, -0.0794264, 0.222079, 0.219973, 0.209253
-1.27596, 1.46273, -0.0971164, 0.229489, 0.213744, 0.204288
-1.0433, 1.73478, -0.064736, 0.236471, 0.208297, 0.200616
-0.762813, 1.76912, 0.00473655, 0.240142, 0.204067, 0.198125
-0.470972, 1.69015, 0.0851154, 0.238349, 0.202007, 0.196152
-0.189889, 1.51848, 0.156481, 0.230592, 0.202292, 0.193925
0.0514067, 1.27891, 0.216129, 0.218592, 0.203886, 0.190912
0.241673, 0.92732, 0.254214, 0.204908, 0.204972, 0.187013
0.373002, 0.459412, 0.297744, 0.191826, 0.204187, 0.182034
0.44075, 0.115814, 0.270221, 0.181648, 0.201969, 0.176646
0.548671, -0.217458, 0.117974, 0.176549, 0.197069, 0.172723
0.723278, -0.577537, 0.0507899, 0.17576, 0.191759, 0.171144
0.840793, -0.766332, -0.0218067, 0.177895, 0.188539, 0.17239
1.00366, -0.910318, -0.0802502, 0.182512, 0.186825, 0.175889
1.30749, -1.00593, -0.157459, 0.189174, 0.186656, 0.180938
1.58782, -1.01901, -0.208938, 0.196816, 0.188799, 0.187585
1.87901, -0.798443, -0.250519, 0.204256, 0.192518, 0.194703
1.97877, -0.553048, -0.287827, 0.209263, 0.197754, 0.201651
1.95863, -0.194807, -0.279164, 0.210485, 0.202327, 0.206446
1.68341, 0.136334, -0.320099, 0.20875, 0.204319, 0.208395
1.17368, 0.512976, -0.322892, 0.205866, 0.203303, 0.206831
0.55622, 0.932564, -0.316447, 0.202616, 0.200562, 0.202264
0.0130574, 1.23946, -0.269681, 0.199509, 0.197555, 0.196806
-0.412846, 1.32833, -0.268364, 0.197067, 0.195581, 0.192646
-0.728534, 1.29538, -0.264524, 0.194659, 0.194981, 0.189418
-0.978101, 1.11628, -0.252528, 0.193509, 0.196136, 0.186758
-1.06825, 0.890023, -0.245417, 0.192108, 0.197351, 0.183956
-1.06758, 0.6988, -0.227151, 0.18974, 0.197796, 0.181242
-1.01423, 0.526232, -0.172356, 0.187099, 0.196669, 0.178718
-0.906602, 0.381414, -0.0782889, 0.184011, 0.194035, 0.176494
-0.753678, 0.294978, 0.0303862, 0.180865, 0.190496, 0.174607
-0.565014, 0.290122, 0.103476, 0.177645, 0.186373, 0.172711
-0.472701, -0.0107059, 0.097198, 0.175135, 0.182167, 0.170698
-0.289204, -0.259578, 0.0559115, 0.17346, 0.178954, 0.16951
-0.0260894, -0.551589, 0.0298645, 0.172622, 0.176547, 0.169323
0.122008, -0.879551, -0.0155402, 0.172597, 0.175404, 0.1703
0.202997, -1.13643, -0.0732937, 0.173485, 0.175917, 0.172845
0.154253, -1.28284, -0.0868278, 0.17551, 0.178287, 0.176728
0.0211811, -1.3726, -0.043039, 0.178336, 0.182131, 0.18153
-0.215264, -1.30816, 0.0245672, 0.181094, 0.186492, 0.186599
-0.372812, -1.11101, 0.0995867, 0.183358, 0.190522, 0.190766
-0.500145, -0.892893, 0.137471, 0.184865, 0.193579, 0.19266
-0.769424, -0.635437, 0.051196, 0.185655, 0.195527, 0.192503
-1.02074, -0.386798, -0.0664669, 0.186016, 0.196471, 0.191538
-1.07202, -0.234433, -0.100792, 0.18607, 0.196644, 0.190435
-1.10701, 0.202236, -0.115487, 0.186047, 0.196466, 0.188662
-1.07963, 0.640385, -0.127236, 0.185722, 0.196239, 0.185497
-0.998945, 0.992506, -0.121769, 0.185498, 0.195289, 0.18182
-0.848779, 1.2915, -0.0849205, 0.185644, 0.194129, 0.178758
-0.639861, 1.42769, -0.0102736, 0.186143, 0.192659, 0.176969
-0.418818, 1.34734, 0.028886, 0.186213, 0.190682, 0.176188
-0.210976, 1.02456, 0.12258, 0.18512, 0.187796, 0.175542
-0.0377022, 0.765474, 0.162989, 0.182559, 0.184657, 0.174332
0.23001, 0.406472, 0.0732915, 0.179165, 0.181421, 0.172694
0.40462, 0.0138989, 0.00224367, 0.175659, 0.178438, 0.171113
0.539345, -0.222516, -0.0311427, 0.173066, 0.176305, 0.170458
0.669664, -0.405631, -0.0667343, 0.172044, 0.175302, 0.171351
0.863106, -0.578391, -0.0765096, 0.172487, 0.175637, 0.173548
1.08903, -0.557117, -0.0659462, 0.174142, 0.176894, 0.176661
1.29124, -0.540494, -0.100955, 0.176418, 0.178628, 0.180442
1.39986, -0.424182, -0.151122, 0.178795, 0.179837, 0.184073
1.38261, -0.280646, -0.172752, 0.180581, 0.180238, 0.186697
1.30948, -0.171595, -0.193658, 0.181369, 0.179466, 0.187474
1.17818, -0.0944558, -0.204738, 0.18084, 0.178078, 0.186081
1.01933, 0.000675713, -0.123776, 0.178968, 0.176407, 0.182813
0.859665, 0.191813, -0.06105, 0.176188, 0.174704, 0.178478
0.684299, 0.389398, -0.0520598, 0.173281, 0.173236, 0.1743
0.456336, 0.622305, 0.0109555, 0.171428, 0.172173, 0.171438
0.256034, 0.843605, 0.112752, 0.171343, 0.171481, 0.170784
0.0955499, 0.981244, 0.158958, 0.17323, 0.170978, 0.172429
-0.0117417, 1.08526, 0.185823, 0.176447, 0.170697, 0.175737
-0.117192, 1.16706, 0.268394, 0.18014, 0.170581, 0.179796
-0.172985, 1.19352, 0.352852, 0.1837, 0.170346, 0.183767
-0.209164, 1.21328, 0.437064, 0.18656, 0.170101, 0.186655
-0.200139, 1.19808, 0.513749, 0.187972, 0.169732, 0.187895
-0.156663, 1.1249, 0.557748, 0.188091, 0.1692, 0.187778
-0.115711, 1.00133, 0.582871, 0.185982, 0.168509, 0.185561
-0.0651314, 0.858557, 0.57014, 0.182361, 0.167652, 0.181873
-0.0264711, 0.720183, 0.57566, 0.17814, 0.166823, 0.177654
-0.00609917, 0.59806, 0.636392, 0.173385, 0.16596, 0.173206
-0.0469978, 0.395789, 0.560482, 0.169199, 0.165229, 0.169582
-0.0402957, 0.0391706, 0.276474, 0.166925, 0.164878, 0.168865
-0.0696585, -0.446162, 0.00012922, 0.16705, 0.164647, 0.171535
-0.0687661, -0.964783, -0.146165, 0.169996, 0.164456, 0.176772
-0.075754, -1.42418, -0.305563, 0.175647, 0.164606, 0.183422
-0.103233, -1.79946, -0.484156, 0.182925, 0.164972, 0.190077
-0.10976, -2.05115, -0.660442, 0.191314, 0.16546, 0.196258
-0.0947762, -2.1582, -0.846271, 0.199237, 0.16614, 0.200672
-0.0395889, -2.11535, -1.0053, 0.20524, 0.166898, 0.203042
0.00162638, -1.94271, -1.10808, 0.208527, 0.167677, 0.203208
0.0631823, -1.70435, -1.12042, 0.208584, 0.168601, 0.20122
0.136616, -1.40242, -1.02892, 0.205247, 0.169557, 0.197369
0.187942, -1.079, -0.913254, 0.19878, 0.169998, 0.192138
0.201098, -0.766444, -0.779622, 0.190704, 0.169496, 0.186632
0.214368, -0.496446, -0.232688, 0.182463, 0.168393, 0.181818
0.243426, -0.149897, 0.348239, 0.175282, 0.166531, 0.178702
0.233333, 0.164309, 0.705639, 0.171429, 0.164711, 0.177614
0.226305, 0.485963, 0.874084, 0.171882, 0.164221, 0.178675
0.237509, 0.792907, 0.872576, 0.175492, 0.164888, 0.181813
0.215032, 1.04664, 0.816443, 0.180548, 0.166039, 0.185976
0.180723, 1.28787, 0.789065, 0.185923, 0.167239, 0.189862
0.156347, 1.45053, 0.746717, 0.190829, 0.168041, 0.193627
0.112798, 1.47391, 0.690172, 0.193686, 0.168505, 0.195772
0.0796091, 1.41643, 0.551068, 0.194407, 0.168518, 0.196196
0.0519378, 1.34963, 0.370717, 0.193079, 0.167915, 0.195166
0.030911, 1.28911, 0.229495, 0.190173, 0.16715, 0.193145
-0.0398714, 1.24738, 0.151963, 0.186673, 0.166683, 0.190594
-0.111027, 1.25455, 0.0911815, 0.183081, 0.166392, 0.188028
-0.161564, 1.30224, 0.0293563, 0.179843, 0.166169, 0.185883
-0.189657, 1.26644, -0.00977103, 0.176869, 0.166015, 0.184111
-0.197518, 1.17937, -0.0220284, 0.173978, 0.165814, 0.182519
-0.184385, 1.03413, -0.0155903, 0.171364, 0.165558, 0.181129
-0.168227, 0.85526, 0.0202901, 0.169228, 0.165327, 0.179962
-0.133689, 0.668234, 0.000627171, 0.167641, 0.165076, 0.178884
-0.101451, 0.479444, -0.0217027, 0.166942, 0.164713, 0.177863
-0.0563074, 0.257473, -0.0268221, 0.167501, 0.164369, 0.177442
0.0101282, -0.0790326, -0.205884, 0.169447, 0.164113, 0.178095
0.0822946, -0.593889, -0.395647, 0.172213, 0.164051, 0.179643
0.0968061, -1.17281, -0.479575, 0.175381, 0.164245, 0.182101
0.105476, -1.66231, -0.487717, 0.178794, 0.164659, 0.185098
0.105865, -1.99004, -0.500461, 0.182158, 0.165173, 0.18764
0.103, -2.16811, -0.485138, 0.185191, 0.165642, 0.189452
0.0712186, -2.25483, -0.427059, 0.187767, 0.165933, 0.19041
-0.00455464, -2.23855, -0.361511, 0.189154, 0.166056, 0.190466
-0.0529441, -2.10217, -0.257608, 0.189028, 0.166127, 0.189411
-0.0582842, -1.87569, -0.129609, 0.187346, 0.166086, 0.187413
-0.0828743, -1.6229, -0.0126687, 0.184589, 0.165701, 0.185152
-0.115487, -1.33937, 0.117553, 0.181667, 0.165249, 0.183247
-0.0901953, -1.0374, 0.251558, 0.179065, 0.165231, 0.182011
-0.0493878, -0.729711, 0.356335, 0.176887, 0.165397, 0.181257
0.00318131, -0.398877, 0.418058, 0.175409, 0.165546, 0.180987
0.0663193, -0.106552, 0.499196, 0.174248, 0.165628, 0.181654
0.0870466, 0.236618, 0.484637, 0.174178, 0.165555, 0.183041
0.142993, 0.506996, 0.385159, 0.175225, 0.16547, 0.185484
0.121067, 0.797902, 0.23591, 0.176904, 0.165428, 0.188614
0.058983, 1.08093, 0.0500014, 0.17885, 0.165601, 0.191029
-0.0292153, 1.20974, -0.0119581, 0.180719, 0.166178, 0.19147
-0.0668135, 1.20194, 0.0132556, 0.182052, 0.166771, 0.190014
-0.0800904, 1.10992, 0.0707674, 0.182008, 0.167057, 0.186688
-0.0794325, 0.979182, 0.103206, 0.180511, 0.166869, 0.182414
-0.0687716, 0.82542, 0.153873, 0.177964, 0.166424, 0.178155
-0.0710531, 0.638552, 0.227903, 0.17485, 0.165989, 0.174451
-0.07694, 0.448315, 0.296734, 0.171749, 0.165584, 0.171642
-0.102733, 0.292363, 0.301763, 0.169125, 0.165248, 0.1698
-0.134284, 0.162121, 0.230197, 0.167143, 0.16493, 0.168839
-0.13938, 0.0515846, 0.0584461, 0.165816, 0.164472, 0.1684
-0.141085, -0.0396078, -0.165346, 0.165179, 0.164111, 0.168282
-0.130977, -0.124239, -0.37986, 0.165229, 0.163948, 0.168298
-0.142722, -0.18941, -0.536215, 0.165783, 0.164042, 0.168455
-0.158684, -0.243744, -0.656805, 0.166713, 0.164362, 0.168581
-0.146805, -0.27186, -0.793436, 0.167639, 0.164937, 0.168479
-0.127609, -0.266525, -0.900089, 0.168323, 0.165607, 0.168134
-0.100121, -0.239062, -0.99214, 0.168627, 0.166188, 0.167576
-0.0651993, -0.20586, -1.00373, 0.168321, 0.166404, 0.166837
-0.0999417, -0.133503, -0.903615, 0.167504, 0.165992, 0.166068
-0.106549, -0.0628394, -0.731266, 0.166457, 0.165272, 0.165349
-0.0772794, -0.00280989, -0.542087, 0.165371, 0.164582, 0.164724
-0.0751165, 0.0709664, -0.339048, 0.164542, 0.164095, 0.16425
-0.0697467, 0.114764, -0.148785, 0.16409, 0.163906, 0.163952
-0.058568, 0.128724, 0.0443684, 0.164029, 0.163994, 0.163823
-0.0646365, 0.102309, 0.231487, 0.164311, 0.164372, 0.163808
-0.0549075, 0.0629929, 0.389003, 0.164827, 0.16497, 0.163874
-0.0359655, 0.0143721, 0.555336, 0.165502, 0.165669, 0.163942
-0.00291545, -0.0582995, 0.722913, 0.166344, 0.166467, 0.163968
0.0494356, -0.13658, 0.85823, 0.167213, 0.167178, 0.163955
0.0814823, -0.19001, 0.93152, 0.167909, 0.167752, 0.163905
0.10785, -0.272989, 0.937293, 0.168293, 0.168039, 0.163846
0.113603, -0.328272, 0.917962, 0.168297, 0.16801, 0.163818
0.106839, -0.362167, 0.908871, 0.168044, 0.167731, 0.163803
0.115369, -0.379292, 0.893872, 0.167687, 0.167299, 0.163792
0.114193, -0.369224, 0.876981, 0.167214, 0.166799, 0.163796
0.10616, -0.334807, 0.810819, 0.166532, 0.166152, 0.163817
0.0801946, -0.290323, 0.711414, 0.165715, 0.165421, 0.163834
0.0431641, -0.234712, 0.544939, 0.164873, 0.164679, 0.163849
0.0185433, -0.166637, 0.351328, 0.16418, 0.164081, 0.163867
-0.021933, -0.101927, 0.0942656, 0.163824, 0.163808, 0.163895
-0.0583414, -0.0393289, -0.203718, 0.163937, 0.16393, 0.163937
-0.0784509, 0.00335298, -0.490385, 0.164583, 0.164496, 0.16394
-0.0760027, 0.0311708, -0.71373, 0.165599, 0.165335, 0.163923
-0.057743, 0.053381, -0.852679, 0.166755, 0.166257, 0.163888
-0.0539904, 0.0709857, -0.973388, 0.167894, 0.167115, 0.16385
-0.0774849, 0.0883325, -1.07733, 0.168947, 0.167813, 0.163844
-0.0934118, 0.125294, -1.16064, 0.169818, 0.168314, 0.163855
-0.111789, 0.178447, -1.2262, 0.170286, 0.168462, 0.1639
-0.107368, 0.218128, -1.22207, 0.170169, 0.168219, 0.163931
-0.0561084, 0.249982, -1.09632, 0.169261, 0.167442, 0.163931
0.00589578, 0.284915, -0.871617, 0.167948, 0.166357, 0.163939
0.0455316, 0.286738, -0.596115, 0.166343, 0.165167, 0.163933
0.0692501, 0.278882, -0.331976, 0.164985, 0.164246, 0.163904
0.0732293, 0.236105, -0.134364, 0.164234, 0.163842, 0.163872
0.0815019, 0.177228, 0.0915441, 0.164173, 0.164068, 0.163852
0.100178, 0.108056, 0.310268, 0.164836, 0.164802, 0.16386
0.100809, 0.0648826, 0.507795, 0.166025, 0.165865, 0.163882
0.100442, 0.00758088, 0.64869, 0.167422, 0.167039, 0.16391
0.0944127, -0.094434, 0.737201, 0.168598, 0.167951, 0.163942
0.0931181, -0.16377, 0.761274, 0.169283, 0.168419, 0.163938
0.0616381, -0.214213, 0.800643, 0.169564, 0.168665, 0.163908
0.0536698, -0.275437, 0.829038, 0.169528, 0.16864, 0.163865
0.0571527, -0.313121, 0.836612, 0.169246, 0.168348, 0.163849
0.046685, -0.328619, 0.849679, 0.168773, 0.16791, 0.163845
0.036602, -0.32904, 0.853508, 0.16813, 0.167363, 0.163858
0.0187, -0.283237, 0.84456, 0.167424, 0.166825, 0.163876
0.013033, -0.214801, 0.795335, 0.166677, 0.166247, 0.163895
0.00641492, -0.155564, 0.684785, 0.165717, 0.165448, 0.163908
0.00329734, -0.0726158, 0.507308, 0.164782, 0.164628, 0.16392
-0.046069, -0.0230088, 0.333036, 0.16409, 0.164085, 0.16395
-0.117921, -0.042681, 0.112641, 0.16379, 0.16398, 0.164012
-0.149737, -0.0706361, -0.13512, 0.163951, 0.164173, 0.164051
-0.141643, -0.0816031, -0.365279, 0.164587, 0.164643, 0.163984
-0.0862455, -0.0913832, -0.532435, 0.165507, 0.165305, 0.163838
-0.0453312, -0.0944451, -0.635347, 0.166449, 0.166039, 0.163769
-0.0841325, -0.101333, -0.730585, 0.167324, 0.166591, 0.16385
-0.125286, -0.07288, -0.843673, 0.168274, 0.167096, 0.164074
-0.13732, -0.0329451, -0.958709, 0.169184, 0.167613, 0.164363
-0.167372, 0.00929366, -1.05798, 0.169958, 0.168086, 0.164693
-0.137044, 0.0591533, -1.12724, 0.170056, 0.168193, 0.164945
-0.102956, 0.136538, -1.15744, 0.169301, 0.167666, 0.165047
-0.0823943, 0.209695, -1.06705, 0.168135, 0.166789, 0.165007
-0.0690589, 0.253673, -0.853139, 0.166856, 0.165714, 0.164918
-0.0474729, 0.242865, -0.59023, 0.165662, 0.164733, 0.164769
-0.0479351, 0.201863, -0.346548, 0.164714, 0.164138, 0.164528
-0.0700149, 0.118836, -0.0901613, 0.164261, 0.164064, 0.164266
-0.0664959, 0.0360487, 0.177317, 0.164555, 0.164549, 0.164075
-0.0496291, -0.0449666, 0.421332, 0.165494, 0.165535, 0.163947
0.0734701, -0.164035, 0.663962, 0.166898, 0.166819, 0.163885
0.174583, -0.254248, 0.899224, 0.168811, 0.168371, 0.1639
0.262003, -0.262681, 1.11498, 0.170865, 0.170024, 0.16399
0.32293, -0.250834, 1.23126, 0.17228, 0.171143, 0.164104
0.349511, -0.222209, 1.19699, 0.172413, 0.171167, 0.164199
0.326495, -0.172162, 1.07768, 0.171678, 0.170478, 0.16428
0.292351, -0.12585, 0.997888, 0.170801, 0.169735, 0.16433
0.2592, -0.0440838, 0.913593, 0.169547, 0.168744, 0.164318
0.177859, 0.0615022, 0.756459, 0.167891, 0.167292, 0.1643
0.0692404, 0.13357, 0.506741, 0.165991, 0.165604, 0.164309
-0.0190944, 0.149906, 0.0955104, 0.164533, 0.164451, 0.164387
-0.0500652, 0.150604, -0.276211, 0.164126, 0.164259, 0.164443
-0.0581432, 0.143057, -0.530932, 0.164633, 0.164766, 0.164414
-0.0332605, 0.138437, -0.698295, 0.165696, 0.165548, 0.164291
-0.0389178, 0.0989614, -0.696993, 0.16674, 0.166251, 0.164159
-0.0647915, 0.104722, -0.599759, 0.167599, 0.166604, 0.164113
-0.0767238, 0.125977, -0.49005, 0.168199, 0.166494, 0.164109
-0.105999, 0.129925, -0.403076, 0.168061, 0.166149, 0.164118
-0.128048, 0.14832, -0.369439, 0.167526, 0.165862, 0.164142
-0.0458037, 0.150106, -0.350717, 0.166775, 0.165323, 0.164045
0.058968, 0.111682, -0.322729, 0.165767, 0.16473, 0.16388
0.174869, 0.0709497, -0.29662, 0.165044, 0.164312, 0.16381
0.272436, 0.0236319, -0.240412, 0.164536, 0.164151, 0.163876
0.349809, -0.0632719, -0.192441, 0.164101, 0.164163, 0.164017
0.438477, -0.150336, -0.148621, 0.164173, 0.164372, 0.164239
0.51841, -0.219259, -0.0956782, 0.164901, 0.164872, 0.16459
0.591475, -0.26015, -0.0816102, 0.166175, 0.165662, 0.16504
0.631021, -0.285905, -0.0728306, 0.167507, 0.166326, 0.165527
0.634628, -0.327842, -0.0203809, 0.168615, 0.166791, 0.165941
0.589331, -0.404475, 0.0335749, 0.169412, 0.166712, 0.166079
0.509038, -0.492847, 0.0910993, 0.169979, 0.166237, 0.1659
0.340652, -0.584326, 0.12747, 0.16954, 0.165639, 0.165433
0.175139, -0.615291, 0.172782, 0.167974, 0.165152, 0.164792
0.0219138, -0.601702, 0.201108, 0.166305, 0.16475, 0.164224
-0.164731, -0.518479, 0.184707, 0.16493, 0.164481, 0.163927
-0.321557, -0.379535, 0.15589, 0.164526, 0.164435, 0.164018
-0.47565, -0.212883, 0.0931969, 0.16521, 0.164597, 0.164459
-0.587075, -0.0601476, -0.00191463, 0.166648, 0.164982, 0.165145
-0.664945, 0.0881478, -0.0739402, 0.168474, 0.165502, 0.165905
-0.710137, 0.215808, -0.119359, 0.170184, 0.166161, 0.166527
-0.754744, 0.346031, -0.111906, 0.17161, 0.167014, 0.166941
-0.808513, 0.47085, -0.0682781, 0.173191, 0.16824, 0.167318
-0.815143, 0.564926, -0.0683918, 0.174358, 0.168836, 0.167507
-0.772319, 0.650754, -0.0596201, 0.175587, 0.168687, 0.167499
-0.666201, 0.694302, -0.0432804, 0.175907, 0.167624, 0.167089
-0.567356, 0.701314, 0.0185581, 0.174951, 0.166581, 0.166434
-0.493624, 0.697492, 0.100928, 0.173481, 0.165797, 0.165786
-0.405851, 0.685738, 0.157361, 0.172247, 0.165112, 0.165264
-0.314749, 0.618878, 0.163697, 0.16997, 0.164496, 0.16474
-0.188474, 0.506235, 0.140243, 0.167152, 0.163997, 0.164267
-0.019738, 0.388566, 0.12202, 0.165042, 0.163817, 0.163997
0.0995776, 0.242098, 0.0807528, 0.163938, 0.163989, 0.164016
0.256958, 0.107293, 0.0379336, 0.164224, 0.164598, 0.164299
0.397136, -0.0214616, 5.03305e-05, 0.165648, 0.165592, 0.164784
0.510275, -0.118013, -0.0216471, 0.167525, 0.166965, 0.165347
0.656309, -0.188413, -0.00196139, 0.169851, 0.168368, 0.165989
0.780681, -0.274228, 0.00513918, 0.171979, 0.169174, 0.166617
0.843434, -0.334551, 0.0237614, 0.173145, 0.169681, 0.167119
0.857881, -0.397509, 0.0169668, 0.174154, 0.169803, 0.16748
0.84454, -0.473853, -0.00607077, 0.175266, 0.169785, 0.167746
0.877452, -0.495382, -0.00337707, 0.175373, 0.16942, 0.167765
0.859347, -0.502201, 0.0478876, 0.174081, 0.168444, 0.167434
0.789013, -0.534029, 0.090541, 0.172678, 0.167004, 0.166848
0.697295, -0.556592, 0.110256, 0.170697, 0.165777, 0.166092
0.588313, -0.547091, 0.131177, 0.168194, 0.164933, 0.165265
0.454166, -0.476165, 0.114255, 0.165956, 0.164358, 0.164516
0.279247, -0.383579, 0.0855699, 0.164408, 0.164017, 0.163989
0.0548563, -0.276923, 0.0160521, 0.16378, 0.163984, 0.163774
-0.130273, -0.164675, -0.0698496, 0.16424, 0.164247, 0.163967
-0.264869, -0.0661963, -0.141261, 0.165648, 0.164628, 0.164474
-0.388302, 0.0341612, -0.166096, 0.167702, 0.165334, 0.165253
-0.60356, 0.0979575, -0.140436, 0.169664, 0.16646, 0.166106
-0.845177, 0.110823, -0.121768, 0.17112, 0.167939, 0.166972
-1.00774, 0.159615, -0.0937577, 0.172589, 0.16963, 0.167995
-1.14323, 0.278899, -0.0944555, 0.175554, 0.171407, 0.169439
-1.16573, 0.362985, -0.0956899, 0.17718, 0.171927, 0.170276
-1.11562, 0.415726, -0.0804279, 0.177084, 0.17169, 0.1705
-1.01807, 0.469462, -0.0235836, 0.176516, 0.170749, 0.170212
-0.860367, 0.503417, 0.0785179, 0.175238, 0.16913, 0.169293
-0.698287, 0.499879, 0.208859, 0.173152, 0.167625, 0.167981
-0.517403, 0.464436, 0.272727, 0.170439, 0.166362, 0.166541
-0.288294, 0.364066, 0.215296, 0.167219, 0.164965, 0.165046
-0.0144875, 0.266764, 0.0771884, 0.164935, 0.164116, 0.164056
0.25086, 0.147334, -0.0188593, 0.163909, 0.164191, 0.163736
0.451688, 0.0246458, -0.111615, 0.164078, 0.165163, 0.164207
0.638388, -0.0576296, -0.177683, 0.165097, 0.166707, 0.165235
0.794433, -0.104374, -0.175924, 0.166304, 0.168455, 0.166477
0.886903, -0.191077, -0.13106, 0.16766, 0.169726, 0.167622
0.915159, -0.30237, -0.0890605, 0.169172, 0.170424, 0.168519
0.926042, -0.418908, -0.0247602, 0.170543, 0.170417, 0.169024
0.900355, -0.484865, 0.000945666, 0.170884, 0.169653, 0.168892
0.871259, -0.577086, 0.0145077, 0.171633, 0.169079, 0.16884
0.841694, -0.685408, -0.0295561, 0.172797, 0.168619, 0.168921
0.797304, -0.745149, -0.0406395, 0.17303, 0.168092, 0.168796
0.661804, -0.810818, -0.0160911, 0.173053, 0.166862, 0.168362
0.468527, -0.825469, 0.0301, 0.172001, 0.165464, 0.167411
0.254358, -0.746956, 0.0790874, 0.169496, 0.164533, 0.166037
0.0253125, -0.597149, 0.143142, 0.166635, 0.164298, 0.164734
-0.174311, -0.411973, 0.179457, 0.164916, 0.164754, 0.164103
-0.322188, -0.236248, 0.169846, 0.164323, 0.165465, 0.164148
-0.440127, -0.0702994, 0.107677, 0.164823, 0.165937, 0.164711
-0.535282, 0.0655956, 0.0364818, 0.166098, 0.166246, 0.165595
-0.644588, 0.2029, -0.00959891, 0.16812, 0.166909, 0.166878
-0.771906, 0.328529, -0.0429171, 0.170582, 0.167669, 0.168304
-0.939935, 0.436364, -0.0342183, 0.173525, 0.168401, 0.169766
-1.04618, 0.595785, -0.0220894, 0.177177, 0.169126, 0.171406
-1.06235, 0.711857, -0.0255588, 0.179572, 0.169009, 0.172244
-0.994373, 0.739312, -0.0100179, 0.178969, 0.168328, 0.171795
-0.897717, 0.749582, 0.0241834, 0.17739, 0.167535, 0.170865
-0.74812, 0.720879, 0.0670685, 0.17476, 0.166566, 0.169412
-0.581376, 0.675303, 0.0848093, 0.171572, 0.165621, 0.167732
-0.43027, 0.601822, 0.105193, 0.168654, 0.164788, 0.166105
-0.273015, 0.453854, 0.0853709, 0.165684, 0.164187, 0.164651
-0.11374, 0.214796, 0.042884, 0.163965, 0.163937, 0.163905
0.00708933, -0.00894849, -0.0118471, 0.164238, 0.16406, 0.164075
0.106378, -0.157613, -0.0550581, 0.165589, 0.164451, 0.164742
0.199379, -0.256772, -0.0732794, 0.167084, 0.165065, 0.165555
0.292944, -0.286553, -0.0703227, 0.167964, 0.165766, 0.166177
0.401165, -0.275058, -0.0376996, 0.168285, 0.16646, 0.166606
0.459374, -0.390032, -0.00455809, 0.168512, 0.167116, 0.167001
0.497979, -0.416742, 0.00567189, 0.16835, 0.167672, 0.167203
0.485888, -0.392732, -0.0243963, 0.167825, 0.167616, 0.166998
0.410643, -0.384588, -0.0776032, 0.167267, 0.16705, 0.166575
0.348577, -0.23461, -0.126957, 0.166816, 0.165986, 0.166028
0.245886, -0.0380783, -0.123412, 0.165708, 0.16489, 0.165192
0.150565, 0.0998239, -0.071168, 0.164558, 0.164189, 0.164447
0.0638416, 0.211468, -0.0230378, 0.163915, 0.163905, 0.164001
-0.0238824, 0.291665, 0.0149177, 0.163829, 0.163932, 0.163832
-0.111975, 0.337137, 0.0312217, 0.164119, 0.164221, 0.163881
-0.226365, 0.366622, 0.0421161, 0.164553, 0.164862, 0.164073
-0.331117, 0.365637, 0.0601788, 0.164981, 0.165665, 0.164322
-0.426298, 0.32539, 0.0642485, 0.16524, 0.166496, 0.16458
-0.520517, 0.255805, 0.0324012, 0.165312, 0.167329, 0.164864
-0.583705, 0.169318, -0.00702093, 0.16514, 0.167782, 0.165035
-0.532601, 0.0622554, -0.0321051, 0.164977, 0.167076, 0.164849
-0.444221, -0.0661859, -0.0227948, 0.164721, 0.166029, 0.16451
-0.32386, -0.192354, -0.00477346, 0.164471, 0.165017, 0.164201
-0.171995, -0.303866, 0.028519, 0.164289, 0.164301, 0.16402
-0.0221056, -0.423235, 0.0688109, 0.164215, 0.164187, 0.164051
0.138842, -0.516436, 0.120393, 0.164249, 0.164719, 0.164303
0.25164, -0.633589, 0.135312, 0.16436, 0.16544, 0.1646
0.347734, -0.701073, 0.121359, 0.164512, 0.166273, 0.164928
0.394471, -0.70887, 0.0778706, 0.164698, 0.166727, 0.165141
0.396011, -0.663599, 0.015175, 0.164853, 0.166676, 0.165158
0.444072, -0.606768, 0.00191793, 0.16494, 0.166934, 0.165212
0.475825, -0.540825, 0.00975427, 0.164916, 0.166918, 0.165132
0.493141, -0.480423, 0.0291127, 0.164782, 0.166636, 0.164916
0.47202, -0.407243, 0.0357331, 0.164603, 0.165996, 0.164623
0.447929, -0.326492, 0.0420138, 0.164401, 0.16538, 0.164342
0.449281, -0.25509, 0.0514944, 0.164205, 0.164983, 0.164109
0.446703, -0.198882, 0.0586083, 0.16405, 0.164563, 0.163924
0.462035, -0.148636, 0.0636417, 0.163965, 0.16424, 0.163821
0.465573, -0.0829931, 0.0636535, 0.163937, 0.163991, 0.163816
0.469539, 0.0263827, 0.0536394, 0.163938, 0.163837, 0.163896
0.455247, 0.143219, 0.0218516, 0.163954, 0.163769, 0.164031
0.412181, 0.268485, -0.0334223, 0.164019, 0.163799, 0.164227
0.325362, 0.405793, -0.0868752, 0.164124, 0.164013, 0.164456
0.177721, 0.528435, -0.140864, 0.164247, 0.16457, 0.164722
0.00872578, 0.650556, -0.164072, 0.164373, 0.165366, 0.165004
-0.138979, 0.766685, -0.15926, 0.164549, 0.166388, 0.16538
-0.256256, 0.835711, -0.124821, 0.164805, 0.167221, 0.165759
-0.378013, 0.854392, -0.108174, 0.165024, 0.168281, 0.166177
-0.555046, 0.82143, -0.124409, 0.165221, 0.17022, 0.166859
-0.735529, 0.803662, -0.124024, 0.165331, 0.171453, 0.167282
-0.840165, 0.728289, -0.119772, 0.165277, 0.171717, 0.167247
-0.920721, 0.600473, -0.10604, 0.165017, 0.171719, 0.167179
-0.992559, 0.492824, -0.103568, 0.164674, 0.171474, 0.167029
-1.05749, 0.367171, -0.0790666, 0.164423, 0.171259, 0.167032
-1.03488, 0.205456, -0.0374653, 0.164318, 0.170127, 0.166749
-0.916929, 0.060585, -0.00375447, 0.164314, 0.168057, 0.166022
-0.799435, -0.0678553, 0.00691227, 0.164296, 0.16635, 0.165292
-0.657931, -0.202162, -0.00946271, 0.164225, 0.164956, 0.164656
-0.427724, -0.312028, -0.0354676, 0.164249, 0.164106, 0.164214
-0.188589, -0.400773, -0.0480714, 0.164397, 0.164491, 0.164347
0.0626326, -0.481935, -0.0588687, 0.16465, 0.165851, 0.1649
0.330512, -0.575389, -0.0803532, 0.165009, 0.167639, 0.165655
0.584185, -0.673304, -0.0752561, 0.16528, 0.169662, 0.166482
0.78351, -0.754397, -0.03053, 0.165356, 0.171362, 0.167234
0.950163, -0.792145, 0.0117878, 0.165311, 0.172787, 0.16812
1.07327, -0.826494, 0.0965698, 0.165235, 0.173934, 0.169147
1.14299, -0.816959, 0.170928, 0.165187, 0.174353, 0.169943
1.1485, -0.76943, 0.222272, 0.165134, 0.173907, 0.170226
1.1322, -0.677822, 0.256574, 0.165064, 0.172998, 0.17011
1.07501, -0.56337, 0.271861, 0.164935, 0.171409, 0.169365
0.976105, -0.422408, 0.283708, 0.164791, 0.169369, 0.168216
0.858163, -0.27609, 0.268504, 0.164612, 0.16739, 0.166999
0.727491, -0.101277, 0.225811, 0.164462, 0.165835, 0.166053
0.600074, 0.0918246, 0.194049, 0.164447, 0.1648, 0.165445
0.454443, 0.292587, 0.153882, 0.164532, 0.164164, 0.164999
0.279597, 0.457367, 0.0875301, 0.164565, 0.164088, 0.164692
0.093793, 0.614306, 0.0111, 0.164729, 0.164727, 0.164819
-0.0876388, 0.714701, -0.061751, 0.164821, 0.16602, 0.165184
-0.239048, 0.76916, -0.138625, 0.165001, 0.167581, 0.165755
-0.370815, 0.841863, -0.209136, 0.165359, 0.169067, 0.166396
-0.502043, 0.899851, -0.222344, 0.165697, 0.170379, 0.16699
-0.618403, 0.899222, -0.214481, 0.165977, 0.171443, 0.167536
-0.773815, 0.886904, -0.186308, 0.166206, 0.172378, 0.168019
-0.893862, 0.780896, -0.157073, 0.166114, 0.172978, 0.168309
-0.962941, 0.667745, -0.142461, 0.165853, 0.172917, 0.168325
-1.03568, 0.52772, -0.143842, 0.165494, 0.172768, 0.168332
-1.05997, 0.389596, -0.141978, 0.16514, 0.171905, 0.168068
-1.05621, 0.240139, -0.122726, 0.164896, 0.170711, 0.167755
-1.02659, 0.10694, -0.125038, 0.16473, 0.169207, 0.167261
-0.931078, -0.0133928, -0.172457, 0.164587, 0.167539, 0.166625
-0.864878, -0.234974, -0.20333, 0.164553, 0.166074, 0.166085
-0.746698, -0.385498, -0.225988, 0.164748, 0.164833, 0.165584
-0.59245, -0.468668, -0.220691, 0.164992, 0.164191, 0.165213
-0.292008, -0.414368, -0.181968, 0.165218, 0.164279, 0.164854
0.00567539, -0.359295, -0.108002, 0.165522, 0.165348, 0.164795
0.316785, -0.319631, -0.0323764, 0.165778, 0.167569, 0.165164
0.608045, -0.312657, 0.00625227, 0.166003, 0.170298, 0.165867
0.807258, -0.344195, 0.0203839, 0.166202, 0.172271, 0.166573
0.928481, -0.386821, 0.0463712, 0.166285, 0.173374, 0.167155
1.03481, -0.44915, 0.137076, 0.166324, 0.174247, 0.167816
1.07383, -0.583972, 0.235818, 0.166255, 0.174558, 0.168256
0.973837, -0.781422, 0.251755, 0.165876, 0.173457, 0.168091
0.777445, -0.950496, 0.165297, 0.165297, 0.171669, 0.167635
0.567448, -0.994994, 0.0865742, 0.164856, 0.169791, 0.167164
0.441358, -0.925437, 0.0261534, 0.164724, 0.168175, 0.166847
0.325476, -0.84209, -0.0825766, 0.165188, 0.167296, 0.166942
0.237547, -0.700698, -0.254446, 0.166484, 0.167118, 0.167339
0.162618, -0.519044, -0.420013, 0.168268, 0.167284, 0.167766
-0.053153, -0.246672, -0.535004, 0.169891, 0.167216, 0.168048
-0.270221, 0.0512824, -0.482824, 0.170835, 0.166836, 0.168039
-0.449508, 0.314918, -0.350321, 0.171009, 0.166676, 0.167594
-0.576652, 0.505027, -0.191494, 0.170624, 0.167244, 0.167061
-0.599631, 0.586331, -0.0358869, 0.169623, 0.168455, 0.166537
-0.552657, 0.654657, 0.0737623, 0.168424, 0.1696, 0.166288
-0.532512, 0.746839, 0.0963167, 0.167548, 0.170622, 0.166647
-0.494613, 0.781517, 0.148664, 0.167006, 0.171265, 0.167273
-0.431268, 0.755293, 0.242247, 0.166833, 0.17147, 0.167888
-0.380985, 0.723945, 0.332764, 0.16695, 0.171369, 0.168551
-0.314587, 0.692575, 0.418346, 0.167229, 0.171094, 0.169193
-0.241265, 0.638102, 0.472934, 0.167683, 0.17056, 0.169679
-0.185267, 0.55567, 0.447735, 0.167893, 0.169438, 0.169772
-0.198858, 0.470559, 0.393633, 0.167922, 0.168481, 0.169812
-0.231201, 0.366042, 0.339608, 0.168082, 0.168035, 0.169891
-0.235209, 0.245158, 0.241355, 0.167976, 0.167299, 0.169453
-0.237241, 0.148462, 0.175907, 0.167821, 0.166819, 0.168766
-0.217331, 0.0143916, 0.204719, 0.168085, 0.166719, 0.168058
-0.170266, -0.0569422, 0.178296, 0.167809, 0.166348, 0.16679
-0.158609, -0.133935, 0.145118, 0.167412, 0.166122, 0.16581
-0.0958262, -0.188314, 0.0794458, 0.16689, 0.165854, 0.164857
-0.0555077, -0.226251, 0.0316137, 0.166388, 0.165705, 0.16432
-0.0293706, -0.249714, -0.0110886, 0.165934, 0.165592, 0.164115
-0.0141947, -0.267423, -0.0445199, 0.165527, 0.165522, 0.164118
-0.0188634, -0.275408, -0.0744404, 0.165177, 0.16539, 0.164204
-0.0215461, -0.274677, -0.0794247, 0.164864, 0.165265, 0.164372
-0.0327642, -0.269919, -0.0840443, 0.16462, 0.165081, 0.164497
-0.0359687, -0.252409, -0.0832236, 0.164406, 0.164863, 0.164589
-0.0372247, -0.230964, -0.0814527, 0.164225, 0.164621, 0.164609
-0.0366609, -0.220602, -0.0870383, 0.164084, 0.164385, 0.16458
-0.0304598, -0.203754, -0.0904966, 0.163995, 0.164199, 0.16453
-0.0271813, -0.187298, -0.0929693, 0.163929, 0.16403, 0.164433
-0.0179047, -0.168177, -0.0904551, 0.163883, 0.163905, 0.164329
-0.0120545, -0.149537, -0.08531, 0.163869, 0.163818, 0.164223
-0.00170112, -0.130507, -0.0764664, 0.163861, 0.163764, 0.164125
0.00713678, -0.109637, -0.0679349, 0.163863, 0.163731, 0.164031
0.0168165, -0.0900263, -0.0576749, 0.163883, 0.163737, 0.163972
0.0235238, -0.0725506, -0.0457762, 0.163902, 0.163751, 0.163922
0.0305845, -0.0565809, -0.033955, 0.163913, 0.163769, 0.16388
0.0349603, -0.0415245, -0.0238215, 0.163929, 0.163794, 0.163857
0.0393255, -0.0304858, -0.0146314, 0.163935, 0.163816, 0.163838
0.0421015, -0.0233243, -0.00523066, 0.163935, 0.163835, 0.163823
0.0423269, -0.0173363, 0.00197918, 0.163922, 0.163842, 0.163805
0.040624, -0.0140116, 0.00769624, 0.163911, 0.163851, 0.163795
0.0376406, -0.0124608, 0.0100888, 0.163896, 0.163855, 0.163786
0.0347249, -0.0127015, 0.0108554, 0.163881, 0.163858, 0.163781
0.0311653, -0.0141506, 0.0096141, 0.163862, 0.163854, 0.163773
0.0297101, -0.017045, 0.008604, 0.163828, 0.16383, 0.16375
0.02637, -0.0191911, 0.00766206, 0.163789, 0.1638, 0.163723
0.0223911, -0.0212808, 0.00668968, 0.163764, 0.163781, 0.163708
0.0197159, -0.0231946, 0.00568321, 0.163753, 0.163772, 0.163704
0.0166253, -0.0247525, 0.00418687, 0.163743, 0.163763, 0.1637
0.0130818, -0.0260172, 0.00253261, 0.163743, 0.163762, 0.163706
0.00853731, -0.027042, 0.00206942, 0.163751, 0.16377, 0.163718
0.0060944, -0.0271766, 0.00261562, 0.163744, 0.163761, 0.163714
0.00326907, -0.0283579, 0.00241588, 0.163739, 0.163754, 0.163711
0.00133488, -0.0287784, 0.00102547, 0.16374, 0.163754, 0.163715
-0.000607901, -0.0296575, 0.000823512, 0.163741, 0.163754, 0.163719
-0.00158711, -0.0309121, -2.52198e-05, 0.163737, 0.163749, 0.163716
-0.00311294, -0.0317731, -0.000435333, 0.163722, 0.163733, 0.163702
-0.00476694, -0.0320343, -0.000287268, 0.163707, 0.163718, 0.163688
-0.0065153, -0.033465, -0.000921953, 0.163695, 0.163705, 0.163676
-0.00849455, -0.0339828, -0.000432335, 0.163695, 0.163705, 0.163677
-0.00997396, -0.0352003, -4.68697e-05, 0.163709, 0.163719, 0.163691
-0.00892397, -0.0383877, 0.00194256, 0.163719, 0.163728, 0.163701
